ply
format ascii 1.0
element vertex 621
property float x
property float y
property float z
property uchar diffuse_red
property uchar diffuse_green
property uchar diffuse_blue
end_header
-3.675873 2.767109 12.566177 94 99 95
-3.675873 2.767109 12.566177 94 99 95
-3.624363 2.776958 12.537466 78 82 91
-3.438339 2.414956 12.223318 142 157 180
-3.513712 2.329913 12.653265 52 57 63
-3.513712 2.329913 12.653265 52 57 63
-3.440934 2.330558 12.959785 52 50 64
-2.985806 2.846683 11.879888 123 113 150
-3.211627 2.295012 13.232592 143 144 165
-2.921372 2.373983 12.292659 177 188 192
-2.669845 2.723952 11.578002 154 181 188
-2.605192 2.735948 11.541937 159 189 199
-2.761136 2.364837 12.248817 150 156 156
-2.650362 2.389474 11.857600 48 50 49
-2.746223 2.145772 12.516847 197 195 174
-2.728180 2.099009 12.637949 101 112 118
-2.637067 2.115400 12.532526 86 90 101
-2.474184 2.402672 11.760452 58 63 59
-2.474184 2.402672 11.760452 58 63 59
-2.364593 2.131228 12.381927 146 143 112
-2.060702 2.834042 10.995563 113 139 156
-1.978849 2.486435 10.924353 147 153 153
-1.981021 2.848622 10.938487 138 160 181
-2.206977 2.112530 12.506047 246 250 249
-1.897104 2.764313 10.821076 122 138 153
-1.929518 2.468957 11.048195 164 169 173
-1.961027 3.136298 11.352321 37 39 87
-1.429557 2.044293 8.528433 178 154 178
-2.259212 1.788090 13.786527 157 134 100
-1.776576 2.448540 11.493073 118 116 129
-1.659435 2.453743 11.097401 76 75 70
-1.689283 2.470529 11.324171 154 153 161
-1.424212 2.574886 10.366446 166 144 165
-1.839405 1.650238 13.678470 51 52 44
-1.486313 1.828335 11.360261 128 145 173
-1.308087 2.887834 10.329250 89 93 104
-1.277282 2.909778 10.255607 110 127 147
-1.256243 2.742376 10.239114 127 154 173
-1.631733 1.481028 13.556006 170 163 134
-1.313967 2.001778 11.021357 169 183 183
-1.280872 2.036079 11.011933 66 77 81
-1.280872 2.036079 11.011933 66 77 81
-1.174315 2.652111 10.125799 188 180 195
-1.127912 2.565842 10.330718 164 141 151
-1.202710 2.164591 11.007717 188 197 194
-1.191526 2.128833 11.001962 42 45 54
-1.180350 2.287949 11.044536 85 109 147
-1.072862 2.795573 10.138076 88 86 123
-1.157833 1.994936 11.024450 170 186 186
-1.153093 2.038585 11.005282 159 184 189
-1.126366 1.967573 11.029835 55 79 113
-1.051797 2.577426 10.391463 96 82 97
-1.096359 1.998185 11.016648 175 197 195
-1.081555 2.445223 11.061989 10 11 15
-1.035331 2.114088 11.005330 174 196 194
-1.001473 2.112998 11.013858 65 84 114
-1.202404 0.588828 14.020365 99 92 100
-0.904874 2.574034 10.556247 101 84 92
-1.002687 -0.089568 12.687904 161 173 163
-0.362346 0.566110 5.041388 79 112 155
-0.804740 2.875907 10.534827 66 96 132
-0.819443 2.365487 11.095481 139 145 133
-0.819443 2.365487 11.095481 139 145 133
-0.775407 2.662971 10.588396 59 53 65
-0.769403 2.695266 10.580141 155 144 152
-0.769403 2.695266 10.580141 155 144 152
-0.929874 1.687849 13.242018 138 143 137
-0.720349 2.857622 10.632258 18 29 59
-0.828189 2.025755 12.788357 95 90 60
-0.685241 2.733531 10.653385 98 102 111
-0.685241 2.733531 10.653385 98 102 111
-0.772223 1.992828 12.696107 199 195 168
-0.759320 0.538686 12.609290 61 62 56
-0.764264 2.233194 12.851396 135 140 118
-0.739876 0.609608 12.603923 79 81 68
-0.730587 -0.638569 12.506280 203 183 174
-0.718860 -0.061501 12.343027 56 62 62
-0.718860 -0.061501 12.343027 56 62 62
-0.743099 0.755107 12.792766 127 146 140
-0.737084 2.003907 12.657260 71 92 83
-0.709925 -0.595936 12.504281 103 88 83
-0.815878 -1.326785 14.596599 133 122 120
-0.687329 0.280467 12.342004 159 173 158
-0.691061 -0.765913 12.612737 216 188 174
-0.700386 -0.973135 13.157291 220 219 199
-0.687817 0.824955 12.801851 118 118 106
-0.635386 2.324683 12.555250 170 175 153
-0.566465 2.460371 11.315950 37 43 43
-0.563623 2.509380 11.342015 145 154 159
-0.629923 1.801845 12.800337 143 153 145
-0.521393 2.591692 11.023932 130 125 129
-0.575794 0.035087 12.217156 171 183 173
-0.571218 2.291311 12.451045 75 80 58
-0.560699 2.278166 12.590632 145 137 118
-0.491243 -0.314701 12.207230 90 87 82
-0.491243 -0.314701 12.207230 90 87 82
-0.477507 2.301037 12.290138 81 85 71
-0.412295 2.485098 11.306376 47 50 67
-0.411474 0.162604 12.164072 165 181 178
-0.348269 -0.220921 12.117678 189 211 190
-0.285494 -1.498715 13.357851 124 108 108
-0.244176 0.145032 12.101520 164 185 176
-0.258295 -1.257793 13.517016 83 87 88
-0.229798 -0.178044 12.057629 186 204 190
-0.229798 -0.178044 12.057629 186 204 190
-0.222224 -0.869729 12.429333 140 150 141
-0.222224 -0.869729 12.429333 140 150 141
-0.223401 -0.664954 12.229843 130 136 122
-0.223401 -0.664954 12.229843 130 136 122
-0.215368 -0.441098 12.091403 75 82 74
-0.233735 -1.204844 13.474726 43 43 45
-0.144197 2.229667 12.415848 39 72 51
-0.144197 2.229667 12.415848 39 72 51
-0.122339 2.992613 11.588746 21 35 80
-0.133363 0.664973 12.371681 54 55 57
-0.103669 0.430860 12.180116 51 63 77
-0.103669 0.430860 12.180116 51 63 77
-0.097570 2.400954 11.959147 193 201 188
-0.080832 -1.190027 13.208785 26 26 24
-0.022762 2.618362 11.584949 82 67 86
-0.005331 2.535462 11.726940 121 121 121
0.039133 -0.711168 12.237558 138 140 135
0.033841 -0.040770 12.025472 135 137 115
0.033841 -0.040770 12.025472 135 137 115
0.034330 2.354951 12.456001 41 40 48
0.056074 0.017795 12.033384 130 135 128
0.105451 -0.192026 12.036146 71 79 64
0.105451 -0.192026 12.036146 71 79 64
0.138627 -0.224678 12.024417 191 216 195
0.138627 -0.224678 12.024417 191 216 195
0.137967 0.755570 12.420814 73 93 94
0.157606 0.399895 12.146120 37 53 69
0.227365 0.140516 12.062745 161 173 171
0.288142 0.576892 12.299968 87 110 124
0.600065 -1.372379 25.200539 146 147 141
0.325313 2.712371 12.082998 91 77 112
0.327205 0.019282 12.076631 96 87 82
0.382724 0.037743 12.114526 132 114 102
0.386748 -0.216915 12.101029 57 69 49
0.448146 0.039441 12.112787 143 127 104
0.448146 0.039441 12.112787 143 127 104
0.508182 -1.494261 13.245568 121 111 112
0.479058 0.606038 12.381504 32 33 54
0.534692 0.039798 12.158921 118 125 117
0.534692 0.039798 12.158921 118 125 117
0.584131 0.526195 12.409118 106 143 169
0.633361 0.468912 12.400245 43 51 74
0.655048 0.375897 12.349933 30 41 47
0.655048 0.375897 12.349933 30 41 47
0.722233 2.378301 13.251901 72 69 50
0.719822 2.434431 13.286794 166 147 115
0.679892 -0.464406 12.337202 177 149 127
0.672910 -0.232231 12.258145 51 46 50
0.679650 0.077412 12.272466 35 38 45
0.692792 0.340143 12.355117 99 132 149
0.783356 -0.912982 13.026229 107 96 94
0.860286 -1.500951 12.905700 202 188 175
0.845530 0.374908 12.564724 31 47 62
0.845530 0.374908 12.564724 31 47 62
0.893835 0.358175 12.629523 105 113 126
1.074097 1.700130 12.988759 166 167 188
1.171923 -1.207413 12.604065 149 153 118
1.192416 -1.456937 12.587546 106 103 84
1.351041 2.045915 13.419996 71 100 132
1.389123 -1.343541 12.655874 142 153 149
1.602888 -0.988149 12.996565 214 202 178
-3.797691 2.484186 12.605166 157 223 255
-3.769453 2.357772 12.779046 164 164 166
-3.702015 2.786041 12.519720 143 149 139
-3.636374 2.352215 12.416934 196 194 182
-3.513448 2.329203 12.652116 54 52 73
-2.903387 2.476181 11.743360 54 64 117
-2.911211 2.597270 11.820671 146 170 172
-2.946697 2.342848 12.371280 75 74 72
-2.938475 2.140886 12.873949 160 225 255
-7.752396 6.442099 34.037410 22 31 28
-7.752396 6.442099 34.037410 22 31 28
-2.705485 2.371013 12.366425 156 162 162
-2.448352 2.846410 11.380013 68 59 76
-2.448352 2.846410 11.380013 68 59 76
-2.507024 2.434927 11.742858 159 160 164
-2.248452 2.847544 11.132004 73 65 86
-2.390719 2.199919 12.327781 99 99 89
-2.091002 2.449572 10.970194 183 183 195
-2.008289 2.876586 10.937019 58 52 66
-1.957445 2.877727 10.871778 58 54 68
-1.978144 2.456805 11.014279 64 55 58
-2.119932 2.190816 12.404425 101 105 108
-2.266580 2.026919 13.771645 103 91 77
-2.260937 1.915813 13.791114 145 117 78
-2.254847 1.736732 13.786936 157 124 83
-1.820884 2.448552 11.138126 58 59 63
-2.245945 1.586975 13.775334 169 140 100
-2.208484 1.828421 13.775464 157 133 89
-1.770033 2.460397 11.116590 163 166 173
-1.531849 2.568531 10.490451 170 147 163
-0.874966 0.590016 6.662295 121 105 118
-1.423938 2.553546 10.455298 121 105 118
-1.774515 1.565335 13.768265 122 99 67
-1.319090 2.154457 10.987938 178 199 190
-1.311614 1.805505 11.083205 59 86 107
-1.311614 1.805505 11.083205 59 86 107
-1.264273 2.449710 10.919300 110 107 114
-1.248857 2.110058 10.998460 180 201 192
-1.248857 2.110058 10.998460 180 201 192
-1.155104 2.103038 11.013538 161 181 182
-1.113970 2.062694 11.015227 42 49 59
-1.113970 2.062694 11.015227 42 49 59
-1.075094 2.473797 11.026764 125 116 107
-1.410358 -0.943034 15.207302 117 111 111
-1.369322 -1.708255 15.146402 111 97 97
-1.369322 -1.708255 15.146402 111 97 97
-0.869409 2.476593 11.129238 60 62 61
-0.823575 2.684814 10.530825 60 52 65
-0.763124 2.733824 10.548851 51 44 86
-0.943287 1.714718 13.105854 41 78 61
-0.833592 1.948408 12.736524 190 184 160
-0.730302 2.494310 11.293426 95 97 94
-0.788412 0.476720 12.584488 84 86 81
-0.644163 0.436002 12.423672 137 152 147
-0.646227 2.286525 12.570149 50 49 45
-0.495723 2.766385 10.974075 94 79 118
-0.545517 -0.894546 12.850156 217 204 188
-0.457415 -0.272466 12.146753 160 148 126
-0.436604 0.200152 12.166003 61 68 61
-0.356457 2.423681 11.580192 214 222 209
-0.311987 2.115037 12.425937 76 118 104
-0.266089 -1.355404 13.338269 112 108 109
-0.240953 2.106046 12.339047 197 194 161
-0.193967 -0.145901 12.043096 71 78 70
-0.123322 2.494224 11.716643 60 48 52
-0.115330 -0.843123 12.405503 240 250 239
-0.095881 1.371091 13.301768 63 71 50
-0.086535 2.568282 11.602319 137 137 135
-0.082114 -1.263789 13.424582 78 80 75
-0.068961 2.172872 12.674390 75 81 71
-0.021663 0.772060 12.367939 33 31 45
-0.001444 2.290219 12.545355 171 177 165
0.016704 2.354926 12.275641 41 38 47
0.045157 2.551765 11.797493 55 54 60
0.062151 -0.229199 12.059649 186 207 192
0.063543 -0.139315 12.032003 181 194 177
0.063543 -0.139315 12.032003 181 194 177
0.076048 -0.472887 12.085403 85 89 92
0.125077 0.570747 12.267434 126 154 168
0.130899 0.119739 12.026346 72 77 73
0.130899 0.119739 12.026346 72 77 73
0.168248 0.627358 12.310419 48 57 62
0.287770 -1.509654 13.433412 120 100 99
0.275462 1.368686 13.034697 71 71 69
0.286270 -1.074230 12.905421 199 179 155
0.399367 0.604651 12.376424 28 33 36
0.415590 -0.602264 12.258510 215 219 205
0.413960 0.074553 12.107544 41 42 44
0.420848 0.375696 12.206319 37 45 64
0.420950 2.871950 12.186382 52 81 97
0.502334 -1.079245 13.288951 53 49 50
0.488838 0.078465 12.153575 46 54 65
0.634538 0.041175 12.242049 131 142 134
0.716523 2.326659 13.284876 134 128 102
0.755494 -0.864138 13.021718 75 64 58
0.902669 -0.643180 12.874816 61 46 43
0.943820 -0.382828 12.697545 144 108 86
1.098904 2.090887 13.008532 64 95 116
1.120937 -0.360770 12.808753 109 90 92
1.222586 -1.488748 12.549702 205 207 186
1.304148 2.491964 13.391000 147 216 255
1.438805 -0.861472 12.943776 135 155 156
1.485838 -1.148814 12.879988 81 93 93
-1.257363 0.505745 2.735945 174 175 177
-3.808848 2.847333 12.677192 65 100 138
-3.777415 2.364725 12.815933 164 164 166
-3.360550 2.739092 12.324679 124 141 157
-1.265305 1.236858 5.247517 139 166 175
-2.712862 2.211105 12.395361 195 192 173
-2.583834 2.424815 11.775230 168 165 174
-2.255559 2.783041 11.099201 136 158 145
-2.156685 2.757232 11.117642 101 114 131
-2.131045 2.646939 11.027685 87 95 114
-2.076166 2.786526 10.997677 31 43 69
-1.986589 2.527707 11.024716 144 134 143
-1.682133 2.923036 10.673542 56 47 66
-1.776054 2.405209 11.656580 47 44 51
-1.739683 2.439559 11.547800 162 161 169
-1.546303 2.702980 10.517457 125 149 151
-1.805425 1.923907 12.774970 45 44 42
-1.805425 1.923907 12.774970 45 44 42
-1.367419 3.029177 10.295055 41 60 92
-1.813504 1.414048 14.013219 172 225 255
-1.773507 1.511989 13.811353 171 172 167
-1.313597 2.727818 10.293074 133 162 168
-1.239753 2.584971 10.115278 179 173 187
-1.331340 1.903139 11.072104 102 136 164
-1.331340 1.903139 11.072104 102 136 164
-1.202377 2.690583 10.120114 86 73 119
-1.180351 2.582343 10.232761 175 162 171
-1.233585 1.952442 11.014508 63 87 113
-1.234910 2.011621 11.022238 172 193 188
-1.237115 2.146625 11.000147 177 200 194
-1.145938 3.037539 10.181258 27 37 90
-1.219340 2.198870 10.969340 76 95 125
-1.161292 2.171208 11.005045 177 198 193
-1.089051 3.069231 10.283954 86 173 253
-1.384212 1.537957 13.461777 166 190 194
-1.278788 1.597529 13.379259 178 197 204
-1.058584 1.883537 11.090078 128 162 189
-1.023889 1.868519 11.244050 121 144 158
-0.979826 2.526225 10.755754 157 134 140
-1.155190 0.693450 13.890608 96 86 95
-1.008914 -0.779328 13.224141 95 80 77
-0.949240 0.787131 13.387898 132 145 162
-0.749378 2.605145 10.653987 136 124 136
-0.786068 2.294792 11.131186 211 226 219
-0.863858 1.711309 13.310722 161 162 156
-0.647438 2.574519 10.867477 90 72 86
-0.642857 -0.558253 12.407464 206 218 196
-0.548226 0.428564 12.336172 141 153 149
-0.484554 -0.114155 12.184684 86 90 89
-0.445323 2.035401 12.522638 70 106 96
-0.445323 2.035401 12.522638 70 106 96
-0.296312 0.232425 12.129348 153 173 174
-0.265241 0.407557 12.248320 150 171 166
-0.274449 1.695561 13.564497 53 57 56
-0.230275 3.031602 11.397017 94 168 255
-0.218888 -1.408754 13.288847 33 45 43
-0.188504 0.234788 12.101179 168 189 184
-0.196332 2.220265 12.306465 119 151 150
-0.053122 -0.950293 12.544702 225 235 224
-0.021802 2.340289 12.361355 195 206 189
-0.004925 2.070895 13.127224 116 124 103
0.024230 -0.525851 12.209230 196 205 188
0.021982 0.722158 12.404358 86 108 106
0.038912 1.368662 13.127772 75 76 60
0.081481 1.431203 13.031829 19 19 19
0.120735 0.693434 12.409286 102 111 106
0.178890 0.065951 12.035396 142 168 157
0.231992 -0.788079 12.484637 220 235 214
0.232661 0.665995 12.317645 79 106 113
0.380176 2.613908 12.162702 62 53 74
0.538417 -0.568674 12.323712 197 178 161
0.578114 -1.019500 13.093496 72 62 61
0.561405 2.606425 12.414620 104 105 97
0.705989 -0.922360 13.088429 76 58 58
0.775132 2.454962 13.184481 51 47 46
0.831162 -0.678203 13.069761 165 138 109
0.855261 0.566840 12.770886 79 104 101
0.866399 2.657272 12.807470 48 52 61
0.881984 -0.534024 12.692231 161 127 102
0.918238 0.244487 12.548750 121 112 105
0.945666 -0.574930 12.845089 54 39 42
0.958503 2.829765 12.906988 104 104 102
0.958503 2.829765 12.906988 104 104 102
1.058096 1.912144 13.093408 87 71 71
1.103981 2.018373 13.056889 79 96 114
1.075689 -1.466821 12.667239 94 95 77
1.163427 2.278611 13.237711 126 149 157
1.188998 -0.904869 12.350169 137 121 121
1.243688 -1.068229 12.555012 186 175 143
1.319400 -1.428315 12.534529 96 104 91
1.326221 -1.232716 12.575812 97 96 78
1.598868 -1.054539 12.996133 112 111 91
1.615489 -1.431628 12.911324 105 107 85
-3.820597 2.423002 12.658534 93 123 151
-2.933999 2.193066 12.685221 143 143 155
-2.129592 2.428131 11.354159 163 160 167
-1.791589 2.854188 10.782597 141 168 185
-1.791589 2.854188 10.782597 141 168 185
-1.920415 2.428180 11.838757 169 162 170
-1.800276 1.908856 12.697342 48 47 45
-1.800276 1.908856 12.697342 48 47 45
-1.384055 2.712287 10.334782 136 153 163
-1.427891 2.256835 10.976175 94 123 165
-1.393505 1.955274 11.006411 57 83 118
-1.359849 2.216396 10.995488 61 83 124
-0.423025 0.502130 3.598864 117 139 160
-1.584478 1.520727 13.500661 53 78 57
-1.060579 2.176738 11.007085 185 202 192
-1.043569 2.065583 11.017219 181 201 190
-1.216853 0.379216 14.186327 146 168 191
-1.155353 0.694822 13.894815 96 86 95
-1.018125 -1.628233 14.784142 102 78 74
-0.793116 1.831542 13.006991 44 64 55
-0.735999 0.730895 12.780585 111 133 112
-0.609224 -0.312120 12.232840 165 174 153
-0.626121 -0.796998 12.586137 196 173 155
-0.427100 2.478533 11.327699 82 92 91
-0.460140 2.113857 12.523678 121 168 136
-0.401228 -0.717852 12.406728 229 239 228
-0.334075 -1.211442 13.598171 32 39 49
-0.306598 1.611763 13.808381 43 47 46
-0.258411 1.508369 13.588879 162 158 133
-0.170565 1.469075 13.564188 28 29 23
-0.113660 0.024013 12.022011 168 184 173
-0.005944 2.068512 13.113455 116 124 103
0.051777 -1.511148 13.695886 104 86 74
0.065057 1.413645 12.837162 14 16 15
0.107437 0.702015 12.362988 96 113 107
0.548043 0.549981 12.412024 103 134 154
0.861965 2.744027 12.771213 36 37 65
0.897752 0.461151 12.746337 105 118 108
0.920475 0.245248 12.563792 121 112 105
0.958729 0.548484 12.941364 28 26 37
0.984468 2.524617 13.107263 30 37 45
0.967693 -0.154986 12.624160 130 101 85
1.148852 2.419613 13.246797 124 158 167
1.165194 -1.372173 12.621462 142 140 101
1.312344 -1.015040 12.771811 65 75 110
1.411841 -1.293208 12.739063 133 145 141
-1.271504 1.226832 5.337990 73 68 109
-2.849603 2.251872 12.396437 179 184 162
-2.119627 2.472417 10.959161 140 132 155
-2.192098 2.155304 12.269574 110 121 123
-1.762363 2.302263 11.605676 206 216 207
-1.542761 2.603220 10.396528 59 64 119
-1.542761 2.603220 10.396528 59 64 119
-1.441237 1.484082 15.499332 93 62 68
-0.805342 -1.601169 14.571656 117 93 93
-0.821948 1.532972 14.847508 77 59 55
-0.736293 1.718153 13.304482 26 25 23
-0.571667 2.568350 10.880717 147 115 126
-0.618751 2.041669 12.579651 140 178 157
-0.532751 -0.730237 12.471207 218 232 217
-0.406030 1.714438 13.875894 91 100 105
-0.190767 1.671961 6.705405 27 59 98
-0.315214 -0.200619 12.096255 180 191 175
-0.200543 0.378340 12.154836 143 168 165
-0.162239 2.132359 12.592029 19 29 28
-0.047664 2.302494 12.053148 183 194 178
0.069328 2.259496 12.617684 20 26 26
0.189120 2.259598 13.241824 77 83 81
0.254335 2.199943 13.634855 18 20 19
0.254335 2.199943 13.634855 18 20 19
0.701123 2.919891 12.625875 13 32 72
0.831333 2.213034 13.147992 68 56 56
0.831333 2.213034 13.147992 68 56 56
0.975630 -0.496692 12.833875 57 39 35
1.231796 2.519138 13.432302 32 33 53
1.381697 -0.562013 12.918370 134 153 159
1.381697 -0.562013 12.918370 134 153 159
1.413434 -0.951776 12.839228 123 142 140
1.413434 -0.951776 12.839228 123 142 140
1.530673 -0.977833 12.982653 88 72 73
-5.600516 -0.050513 11.045279 138 158 195
-34.137039 -9.923701 76.313339 156 169 211
-29.505843 -9.432234 67.310015 54 90 186
-29.505843 -9.432234 67.310015 54 90 186
-21.359222 -0.243850 49.161131 142 147 177
-20.234581 -0.633723 47.818885 97 113 138
-3.553855 2.249835 12.893698 162 227 255
-2.233031 2.583293 11.129634 60 61 109
-0.843069 1.301661 12.870404 93 60 55
-0.782561 1.922851 12.726029 189 191 169
-0.751992 0.512021 12.563876 91 91 91
-0.609088 -0.509878 12.373836 199 203 168
-0.522831 1.946161 12.556702 108 107 89
-0.239827 2.553100 11.507647 31 34 53
-0.238709 1.761452 13.367272 123 129 119
-0.238709 1.761452 13.367272 123 129 119
-0.185505 2.937055 11.391450 33 36 69
-0.184914 1.998738 12.546808 191 199 178
-0.185681 0.550815 12.260252 135 153 153
0.075552 0.510797 12.113962 126 150 162
0.128388 -0.811060 12.334772 226 239 229
0.128388 -0.811060 12.334772 226 239 229
0.185862 1.377106 12.878756 103 104 99
0.268414 0.490033 12.332349 96 121 118
0.459293 -1.450297 13.218263 120 107 99
0.461844 -0.411207 12.197251 170 179 148
0.715993 -0.962049 13.073945 86 75 71
0.772206 2.561706 12.674559 137 96 110
0.772206 2.561706 12.674559 137 96 110
1.072288 1.138412 13.013102 61 50 58
1.080501 0.895335 12.870009 63 44 46
1.159775 1.948314 13.201312 136 161 166
1.219279 1.048176 13.118572 145 165 176
-41.636145 -24.371424 89.534512 100 134 169
-47.777318 -23.827092 103.677654 124 137 153
-38.170558 -25.839688 83.405284 133 142 175
-34.417736 -24.791479 76.627834 43 61 101
-46.602125 -24.234738 103.945307 162 178 194
-34.569734 -8.216653 77.712422 161 182 229
-29.526601 -8.133919 67.406765 48 102 190
-29.859586 -6.266929 68.173127 82 128 214
-25.100946 -11.175814 67.959562 98 116 162
-26.302868 -4.115088 71.477718 103 150 204
-25.400561 -4.669845 71.201144 175 189 216
-23.983321 -8.881381 67.541974 133 154 211
-24.066651 -5.538087 69.511388 83 97 123
-21.011456 -3.938404 70.285142 128 182 120
-3.666265 2.493688 12.557888 68 94 129
-3.251435 2.381919 12.251808 167 156 162
-16.611058 -3.371093 68.495619 151 170 174
-13.645689 -11.843938 58.626910 151 157 171
-2.591150 2.438962 11.613249 159 155 169
-10.988481 -3.806258 59.532663 180 193 199
-1.888270 2.515563 10.964734 169 152 168
-8.558530 -10.677385 54.166619 172 158 129
-1.175966 1.683807 13.190543 134 163 167
-0.946839 2.125254 11.321827 71 75 110
-1.076665 0.508001 13.581190 133 162 178
-0.994820 1.786214 12.910522 104 137 126
-0.833124 0.093316 12.480828 161 174 164
-0.561961 0.348567 12.268922 145 161 151
-0.486152 1.816821 13.500164 14 16 15
-0.347832 2.294640 12.433882 27 34 26
-0.261447 0.675292 12.327444 70 70 70
0.046304 0.525946 12.135307 122 145 153
0.197834 -0.602288 12.176195 206 222 211
0.197834 -0.602288 12.176195 206 222 211
0.393962 0.568936 12.251222 45 45 57
0.410947 0.111822 12.124246 75 68 60
0.539302 0.258907 12.233091 144 165 168
0.539302 0.258907 12.233091 144 165 168
0.666903 0.715541 12.600012 90 105 126
0.757967 2.368312 13.351990 107 96 74
0.774030 -0.632176 12.856884 147 114 95
0.883596 -0.742652 12.880896 70 61 52
0.984454 1.837677 12.985516 79 57 59
1.446578 -1.494634 12.785346 184 189 167
1.575327 -1.357334 12.859451 110 109 88
-35.691513 -14.436617 77.531345 100 153 169
-29.066602 -3.415108 66.202457 31 50 145
-33.294058 -24.663351 76.746147 157 170 204
-28.211502 -14.625613 66.804952 135 144 159
-31.036010 -24.488335 74.482680 44 60 94
-19.124486 -0.524833 47.287157 127 140 159
-33.658511 -19.127473 85.804775 99 105 105
-28.910247 -12.907229 74.908555 123 137 150
-27.678938 -5.071364 71.701904 142 157 180
-28.770027 -3.855017 75.187252 158 173 176
-26.981258 -12.992153 75.898730 198 203 223
-27.395398 -15.828291 78.693729 106 109 116
-23.317281 -10.161335 67.292985 83 91 127
-3.853296 2.634519 12.682804 161 228 255
-17.693615 0.122614 60.204379 248 251 255
-19.693077 -4.619583 69.139025 199 223 227
-1.136570 0.433092 3.761704 79 85 99
-3.352036 2.819385 12.169259 52 56 91
-18.275729 -3.596093 67.887887 135 156 151
-14.487826 -19.933846 59.171723 219 229 238
-17.821657 -6.791257 73.458305 63 78 85
-2.353800 2.693004 11.142198 150 167 161
-2.353800 2.693004 11.142198 150 167 161
-1.907056 2.781275 10.896756 116 150 133
-2.354568 1.811138 13.819663 165 231 255
-1.355305 2.793064 10.295187 116 136 163
-1.286400 2.541246 10.946970 120 107 116
-1.250586 -1.566865 15.012560 102 81 78
-0.831156 0.730495 12.815040 115 121 119
-0.054856 -0.283041 12.051328 173 185 163
-0.054856 -0.283041 12.051328 173 185 163
0.010224 0.271926 12.105362 154 178 180
0.238009 -0.335231 12.151186 182 196 179
0.765970 0.491998 12.551945 101 128 155
-1.422073 0.101137 2.399854 45 63 201
-38.659119 -5.866222 84.141657 208 221 240
-27.508336 -13.657895 66.821854 247 251 254
-28.052622 -12.706402 69.514590 22 65 157
-22.969703 -18.682564 61.953905 154 162 181
-21.990048 -19.694045 61.610318 81 81 93
-21.990048 -19.694045 61.610318 81 81 93
-23.944099 -11.599987 67.058952 197 200 215
-3.683319 2.211825 12.881356 160 225 255
-2.155345 2.916589 11.114397 83 70 113
-2.084968 2.622279 10.983559 66 82 107
-2.027937 2.103921 13.041498 233 246 237
-1.813473 2.152623 11.879342 35 39 40
-0.647565 2.178170 12.424518 36 49 32
-0.516480 -0.165861 12.182129 126 128 106
-0.009096 1.576219 13.386399 15 21 21
0.816941 2.830451 12.690048 45 49 94
1.006757 -1.313873 12.602174 52 42 43
-22.029391 -0.137028 48.458563 23 27 28
-22.029391 -0.137028 48.458563 23 27 28
-23.021661 -1.472216 52.797280 243 250 255
-28.327305 -12.748362 70.186825 28 66 149
-18.160074 -20.975464 65.815832 153 204 129
-17.533627 -5.090687 69.547379 222 240 252
-2.511589 2.229459 12.166960 69 67 52
-2.224462 2.383091 11.362215 95 105 104
-2.137771 2.869942 10.946202 71 61 114
-15.368894 -16.843288 85.695139 19 18 23
-1.751275 2.516911 11.078750 164 156 169
-1.445898 2.435178 11.279113 29 37 50
-1.208896 2.170810 11.262961 68 80 96
-0.978667 2.397360 11.208719 35 43 64
-0.700289 0.139337 12.445200 103 114 97
-0.519073 0.587004 12.556117 96 80 80
-0.266926 2.418095 11.828408 205 218 200
-0.266926 2.418095 11.828408 205 218 200
-0.088846 -1.331916 13.484982 22 24 21
0.366122 2.850702 12.128381 27 32 51
0.484723 2.509434 12.082934 65 67 56
0.975531 -1.287169 12.410999 83 74 69
-29.879409 -6.964936 75.300318 28 60 133
-1.935749 1.743020 13.130955 62 73 65
-1.151260 2.659716 10.951776 163 137 148
-0.656622 2.284074 11.460034 223 236 229
-24.415944 -22.191737 63.164160 214 225 255
-3.588627 2.283419 14.416636 163 227 255
-9.710082 -11.975450 50.138897 231 243 255
-2.139428 2.796363 11.012109 70 86 101
-1.836963 1.367917 15.935533 168 229 255
-1.035940 -1.248894 14.479215 85 73 77
-0.332226 -0.822648 12.900930 217 228 212
-0.129321 2.833848 11.675513 50 50 102
0.297384 2.296333 12.860289 15 21 19
1.066695 2.800292 13.343898 151 146 142
-18.732436 -2.778071 54.964347 194 207 216
-3.435195 2.675823 12.492984 134 158 170
-3.435195 2.675823 12.492984 134 158 170
-3.488013 2.178473 13.861075 163 229 255
-14.328889 -3.478193 65.583945 220 240 251
-10.635242 -13.443792 55.608314 232 245 254
-24.530655 -16.274403 65.863613 100 115 120
-21.723370 -12.003092 66.843266 216 222 234
0.042860 -0.659301 12.617264 160 162 141
-16.451844 2.099607 50.209493 236 244 247
1.091614 -0.966696 13.262537 133 112 109
-8.730084 4.970359 19.827301 159 224 255
-4.078776 0.574466 20.331653 235 233 221
