ply
format ascii 1.0
element vertex 1184
property float x
property float y
property float z
property uchar diffuse_red
property uchar diffuse_green
property uchar diffuse_blue
end_header
2.201491 -1.569078 15.039787 139 130 131
2.256679 -2.023073 13.027287 240 245 238
2.124385 -1.981278 14.435751 161 162 166
2.188109 -2.010497 14.921251 37 38 40
2.235666 -2.294387 12.129758 240 246 244
2.265003 -2.232684 14.831798 34 42 88
2.191213 -2.234836 14.986844 43 49 81
2.138728 -2.152815 15.119959 199 198 167
2.263400 -2.405656 14.816235 147 165 175
2.153557 -2.418430 14.991595 142 164 162
2.164672 -2.504127 14.920734 85 99 100
2.188946 -2.662024 15.116871 70 81 113
1.940714 -1.283919 15.066802 169 150 154
2.014168 -1.447526 13.585644 185 163 126
1.931108 -1.457606 14.949129 142 117 123
2.071335 -1.564208 14.409281 106 92 79
1.951966 -1.602752 15.047519 106 81 100
1.958134 -1.649107 15.184728 67 63 86
1.971572 -1.822028 14.966725 131 104 109
2.024758 -1.867701 15.112048 137 134 145
1.909198 -1.935482 14.756048 20 20 18
2.049566 -2.062375 15.043007 216 215 184
1.954675 -2.058476 15.266364 166 159 143
1.999157 -2.118632 14.536416 98 78 53
1.939218 -2.191271 14.867236 108 114 110
2.062334 -2.129050 15.001345 69 61 74
2.067164 -2.122712 15.147844 73 62 78
1.904848 -2.289560 15.407151 59 88 118
1.928890 -2.456971 11.091917 51 38 56
1.965420 -2.333834 15.287997 78 100 124
2.085101 -2.501071 15.133746 101 120 137
1.946917 -2.525241 15.350316 83 102 132
1.821232 0.795397 13.738543 212 184 172
1.701191 0.661121 14.939489 59 61 76
1.713020 0.389928 15.051416 141 137 138
1.732622 0.233462 15.076074 136 126 135
1.756086 0.070760 14.952203 73 62 66
1.742728 -0.020868 15.126176 68 73 79
1.796543 -0.282662 15.009606 148 139 140
1.737873 -0.294326 15.222428 72 68 83
1.786759 -0.319522 14.962984 118 93 99
1.749934 -0.476498 15.228357 97 86 90
1.848813 -0.645351 15.078709 122 117 139
1.800056 -0.780345 15.068883 79 90 112
1.827589 -0.840695 15.195807 59 60 81
1.709638 -0.983752 15.220671 125 122 117
1.887537 -1.109668 15.138727 85 72 64
1.712238 -1.116758 15.322284 68 52 62
1.884120 -1.639137 14.749284 40 33 40
1.885252 -1.605312 15.017584 109 97 111
1.794195 -1.657268 15.353788 78 84 120
1.750810 -1.749083 15.356896 77 88 133
1.763302 -2.084908 12.606158 75 86 90
1.763420 -1.981227 12.834174 186 167 127
1.889602 -1.946947 14.321207 154 167 175
1.871950 -2.101809 12.802823 240 245 238
1.864796 -2.443974 11.014168 161 161 163
1.814257 -2.448099 11.515619 115 106 111
1.872723 -2.511638 15.388242 137 157 166
1.568376 1.648126 14.927115 149 129 128
1.586120 1.427983 14.896669 129 104 107
1.522856 1.439154 15.096297 114 112 100
1.533006 1.301908 15.119047 154 144 143
1.606825 1.211283 14.864878 193 181 183
1.626909 1.124011 14.940904 29 33 36
1.502355 1.211204 15.143378 102 90 92
1.665530 0.926830 14.886595 156 137 141
1.596740 0.999905 15.084012 57 59 58
1.527800 0.996962 15.189725 53 51 73
1.682200 0.759873 14.918985 79 62 72
1.625522 0.630184 15.076427 104 111 104
1.693503 0.441142 15.066781 137 121 121
1.634708 0.143675 15.242192 142 126 136
1.654608 -0.799282 15.301124 75 71 106
1.667974 -1.002436 15.322728 61 60 76
1.670088 -1.220210 15.326410 80 81 112
1.585891 -1.549589 14.656773 69 54 33
1.508459 -2.267792 11.305394 96 120 154
1.582453 -2.154019 11.535270 100 117 143
1.648082 -2.207962 14.726947 28 29 23
1.577976 -2.500178 11.229469 125 113 115
1.303440 0.124221 13.349896 139 112 93
1.321001 0.075619 13.481632 60 55 61
1.321162 -0.076494 13.669450 62 66 67
1.303672 -0.130583 13.317794 147 152 145
1.309842 -0.179690 13.664432 73 74 79
1.309278 -1.844144 11.520407 119 144 175
1.486214 -1.961583 12.321175 235 245 254
1.362012 -2.234138 11.044496 97 125 172
1.487556 -2.293253 11.116141 114 143 175
1.416659 -2.385975 11.045150 74 82 105
1.103671 0.541229 13.150158 89 75 72
1.134884 0.544094 13.489276 196 164 149
1.143071 0.540598 13.554236 195 170 150
1.153127 0.507598 13.703622 51 49 54
1.102713 0.560636 14.005937 166 130 104
1.161750 0.497986 13.252407 196 164 141
1.262974 0.348940 13.387886 169 142 123
1.297914 0.305397 13.663002 161 134 115
1.182823 0.385057 13.811507 181 155 128
1.136795 0.383784 14.115857 155 127 103
1.228541 0.344492 14.570487 101 80 75
1.179847 0.287799 13.083776 84 75 78
1.285911 0.234162 13.440176 164 143 124
1.292421 0.220145 13.652205 162 147 126
1.243014 0.298544 13.776937 162 137 115
1.220547 0.121232 13.968458 82 53 45
1.145839 0.210751 14.401860 89 99 98
1.169171 0.033608 12.990790 138 111 92
1.210970 0.015423 13.123398 149 118 97
1.278742 0.076774 13.792716 162 167 161
1.268290 -0.056616 13.904369 161 171 163
1.244425 -0.263288 13.180754 117 122 102
1.205190 -0.199396 13.684343 154 163 162
1.254256 -0.126046 13.888929 154 161 167
1.241792 -0.111124 13.971217 101 105 104
1.233465 -0.114226 14.499734 42 35 42
1.272730 -0.379770 13.650131 43 47 48
1.225937 -0.357088 13.968116 42 42 52
1.192435 -0.390422 14.467552 35 33 38
1.205797 -0.523006 13.497428 136 152 141
1.179016 -0.581134 13.686149 73 75 74
1.164218 -1.844561 11.190183 81 90 133
1.135098 -1.701144 11.325417 222 230 241
0.934329 0.715751 13.270067 208 177 146
0.962636 0.502297 12.857689 200 178 155
1.068168 0.584003 13.114523 199 173 150
1.090642 0.552184 13.890211 203 167 151
0.997811 0.524017 14.059744 168 140 116
1.054114 0.615643 14.427906 50 44 46
0.949205 0.305820 12.756564 111 107 96
1.004289 0.390122 14.273676 38 39 34
1.089734 0.003068 14.192936 116 127 123
0.922404 -0.862806 13.133466 82 100 104
1.066909 -1.806095 11.448269 84 91 117
0.947333 -1.831374 11.525765 163 229 255
0.963900 -1.958247 11.584227 61 72 100
1.088042 -2.226013 11.458110 62 87 107
0.759812 0.941798 13.631650 216 220 193
0.712917 0.900651 13.881111 213 216 205
0.782816 1.051344 14.297473 63 52 48
0.781082 0.853297 13.354973 207 171 147
0.805488 0.871747 13.690740 97 88 91
0.766859 0.809801 14.008705 199 201 188
0.899240 0.579903 14.210399 62 61 56
0.517978 1.166121 14.024351 163 171 174
0.575052 1.014449 13.599702 228 240 228
0.515215 1.017573 13.827133 201 199 187
0.681139 0.921623 13.907865 199 195 184
0.694938 1.048991 14.156911 149 162 171
0.410927 1.078110 13.710499 174 174 166
0.447289 -1.573558 13.742496 92 94 91
0.305230 -2.284190 12.387571 161 226 255
0.177931 1.359492 13.554710 94 102 105
0.292264 -1.665080 13.437191 169 231 254
0.278459 -1.780773 13.665608 57 57 59
0.058694 0.945194 12.945980 230 239 222
-0.154029 -1.488191 13.084952 171 231 255
-0.930229 -4.995191 10.312224 83 111 133
-6.279113 -8.039136 9.818469 65 64 70
-19.226599 -2.100660 7.473093 222 234 212
-23.633913 1.465184 17.157125 163 144 101
-98.990182 13.878924 5.742886 184 198 201
38925.944075 8423.104247 42380.450215 205 213 215
448.274363 165.462627 507.532733 141 165 169
387.830942 117.552484 460.129926 228 240 252
377.975128 141.204026 451.608212 233 246 254
327.904927 85.550684 409.713597 99 108 123
310.500688 72.792643 374.881565 214 190 188
247.329791 103.403643 285.466832 247 250 255
168.208084 30.400046 216.604250 214 216 231
167.827045 67.232767 211.272545 223 238 245
153.128061 -27.326734 126.168076 24 33 38
145.258745 64.348023 189.681651 126 134 145
119.168244 45.599670 165.948174 220 232 254
118.435576 52.251170 174.542911 225 240 247
110.212799 25.370416 160.549311 141 161 194
107.586545 7.500967 106.482914 168 171 188
105.943831 7.401793 104.983399 165 171 185
95.177747 16.324338 139.952617 143 159 175
66.697975 21.160860 56.408942 44 58 61
64.492707 19.583885 55.740135 175 194 211
64.413520 18.335614 56.630789 30 26 27
62.403893 22.454571 53.886637 190 207 227
61.415404 33.593546 103.176455 131 147 163
56.343125 18.781963 51.691758 34 37 46
51.863440 12.305261 93.347055 251 252 254
50.069680 8.271225 62.524025 167 172 175
48.347037 7.487588 62.072056 138 142 153
41.585449 28.784443 86.196026 117 129 171
36.587405 23.939890 75.881274 152 169 212
35.845526 0.893662 42.745060 84 86 85
34.681655 23.764366 74.203391 89 102 134
34.373835 24.459167 73.638944 80 90 126
34.228053 25.205865 73.369623 81 96 129
34.259676 24.809585 69.202222 71 92 113
34.228647 23.114033 74.833372 146 157 185
33.381697 3.918487 49.605211 251 252 255
32.645651 23.483169 72.675369 64 89 130
32.646697 14.895472 72.136989 134 163 181
32.530915 1.313298 42.931372 85 85 95
31.810024 1.606336 43.205292 47 49 62
31.584634 23.235215 72.763947 164 172 208
31.279469 20.836805 54.832400 173 182 197
30.829357 23.581892 74.834443 91 95 120
27.347856 15.687831 73.034102 109 125 122
27.259877 13.508348 66.110239 249 253 255
27.075643 14.121277 64.533518 155 158 173
24.339831 22.037102 62.454334 223 231 254
24.199159 -0.480609 42.367734 112 132 167
23.788303 17.441890 65.713747 112 126 127
23.415420 18.949349 63.277178 159 171 183
23.285177 13.160847 66.644476 119 120 125
22.900955 20.312390 63.746422 82 90 93
22.802032 9.906573 66.025395 105 112 154
21.921923 25.030134 64.431985 222 239 247
13.098851 18.243164 53.651514 220 228 231
12.646963 10.917306 53.109095 156 195 140
11.787541 9.750623 57.672244 157 200 128
9.533049 11.471699 50.436244 205 221 244
7.314433 9.481649 48.635915 177 163 136
6.267658 -5.756972 20.136287 15 24 55
5.670120 -5.482452 19.311635 19 30 60
3.719916 -2.378915 14.592224 237 244 237
3.122660 -2.328974 12.581448 182 168 181
3.058820 -2.306686 12.513404 177 169 180
1.919641 -1.617475 13.751957 163 134 104
2.070762 -2.479680 11.244742 52 47 51
1.922520 -2.437806 11.300663 143 142 122
1.714998 -1.451549 13.692665 135 143 130
1.897820 -1.429659 13.736698 172 228 253
1.519357 -1.406726 13.827548 180 220 255
1.600518 -1.508345 13.584858 85 102 94
1.595902 -2.485217 11.205708 36 46 47
1.568250 -2.778948 11.616282 142 131 137
1.340912 -1.615578 13.359308 98 131 136
1.440574 -1.828465 13.268844 175 163 147
1.341651 -1.974855 11.138037 57 76 116
1.311631 -2.135149 11.150064 192 205 188
1.447106 -2.457736 11.173342 9 13 16
1.117682 -0.738709 13.681247 100 100 98
1.279207 -1.672005 11.375714 215 230 253
1.248976 -1.647693 13.383944 158 183 188
1.215100 -1.550999 13.705940 191 178 162
1.163999 -1.800276 11.283520 36 50 76
1.165761 -1.714821 11.432972 67 94 121
1.270525 -1.797627 11.548558 70 96 123
1.285502 -1.875365 12.241322 244 252 255
1.181906 -2.063866 11.001929 180 192 192
1.295201 -2.025713 11.157630 179 191 191
1.243950 -2.001116 12.540200 119 132 140
1.298924 -2.169850 11.143081 184 201 193
1.295873 -2.272564 12.683498 46 39 33
1.149865 -2.201156 12.707648 82 87 83
1.187964 -3.054725 10.281060 38 54 90
1.222746 -3.076388 10.317568 13 27 64
1.015269 -0.908845 13.226008 236 243 249
1.084708 -1.615998 13.399924 51 36 29
1.033659 -1.847285 12.981420 96 139 111
0.903397 -1.740162 13.122454 59 78 74
1.097294 -2.083095 11.146390 184 197 190
1.073088 -2.021290 12.746405 30 25 21
0.928398 -2.137118 10.731474 90 108 130
1.085145 -2.247025 11.123270 64 88 112
0.928550 -2.469066 11.279355 8 12 15
0.901231 -2.458410 11.509218 136 141 121
0.980083 -2.653353 10.581200 181 169 181
0.975710 -2.601083 10.817274 221 218 235
1.057030 -2.727849 10.450319 63 58 81
0.859986 -1.682716 13.319688 24 30 26
0.709633 -1.894686 12.627878 184 183 152
0.885995 -1.856212 12.915714 98 127 125
0.881067 -1.703169 13.236707 169 171 158
0.705929 -1.729046 13.398851 32 28 25
0.842591 -2.430840 11.735162 219 230 224
0.756351 -2.446361 12.192403 223 231 218
0.842551 -2.697369 10.725294 60 55 61
0.808726 -2.537804 11.040697 114 89 93
0.826909 -2.511879 11.243109 68 69 71
0.799425 -2.533180 11.380263 138 141 150
0.809968 -2.764198 10.651372 51 43 80
0.771467 -2.743711 10.718023 43 44 74
0.615126 -1.773374 13.377235 87 73 62
0.594530 -2.691718 10.963895 82 79 100
0.572586 -2.520876 11.335388 162 162 164
0.531815 -2.793963 11.038012 91 77 102
0.318801 0.310750 12.191485 197 206 187
0.342255 0.204310 12.197670 185 194 177
0.300371 -0.698821 12.435219 48 52 53
0.325537 -0.765360 12.536208 85 76 69
0.324993 -1.666737 13.621060 138 141 148
0.461102 -2.108961 12.437125 130 172 136
0.445878 -2.495744 11.344819 65 78 69
0.454196 -2.366330 12.231356 206 211 191
0.462715 -2.351106 12.425031 58 68 57
0.489793 -2.959593 11.056889 23 34 56
0.459873 -3.015613 11.117392 9 23 49
0.118991 1.207418 13.637799 205 174 156
0.220817 0.152061 12.152591 87 95 97
0.134070 -0.008150 12.141784 170 187 169
0.293545 -0.134256 12.180392 177 188 180
0.155123 -0.671580 12.385359 52 55 60
0.244646 -1.763608 13.490052 124 129 122
0.282856 -1.986107 12.736011 192 200 177
0.248394 -2.046660 13.052619 30 30 28
0.242287 -2.245784 12.299628 92 131 112
0.185234 -2.245862 12.331859 128 166 153
0.176601 -2.167197 12.572417 21 22 16
0.265810 -2.490691 11.517093 216 218 215
0.100738 -2.464787 11.856941 26 27 21
0.288568 -2.531609 11.401842 33 42 41
0.137389 -2.511032 11.750354 53 49 48
0.129504 -2.809886 11.457870 41 37 74
0.024538 1.284197 13.490682 83 79 70
0.064947 0.965062 12.578406 232 242 233
-0.042569 0.662260 12.171299 201 209 186
-0.046758 0.152586 12.094815 185 191 177
-0.089725 0.198961 12.100244 89 90 84
-0.013509 0.048006 12.096601 140 148 124
-0.000229 -0.268740 12.146231 155 173 173
-0.041311 -0.536069 12.254427 132 152 153
0.021660 -0.762277 12.381223 54 51 60
0.048010 -2.036515 12.748409 18 22 21
-0.038857 -2.051259 12.972236 118 116 91
0.083840 -1.963652 13.373966 35 37 36
0.030305 -2.152247 12.657434 196 206 207
-0.082432 -2.255454 13.052703 102 102 100
0.094136 -2.402348 11.882731 199 211 189
0.027792 -2.450096 12.545611 42 39 32
-0.009764 -2.504350 11.492505 124 114 122
0.038259 -2.638709 11.600585 104 87 103
-0.048011 -2.881586 11.620278 14 29 48
0.073087 -3.006217 11.600076 11 29 69
-0.106659 0.833301 12.483981 239 246 238
-0.186042 0.613220 12.246701 217 226 209
-0.230447 0.344622 12.122705 193 201 186
-0.220872 -0.137239 12.095923 159 171 167
-0.118911 -0.114761 12.104929 62 68 66
-0.173972 -1.742565 10.474073 156 157 149
-0.118116 -2.091548 13.166967 120 112 101
-0.116239 -1.919710 13.616102 17 17 17
-0.237583 -2.275216 13.103866 114 115 107
-0.163858 -2.197292 13.345620 22 23 28
-0.138943 -2.651025 11.771804 63 52 82
-0.172244 -2.729151 11.709777 35 41 65
-0.246845 -2.900732 11.915326 77 68 89
-0.405319 0.612755 12.308405 213 225 205
-0.385891 0.224242 12.120588 80 80 72
-0.318851 -0.064169 12.091882 149 133 108
-0.413695 -0.069288 12.123022 51 42 43
-0.412167 -0.108753 12.140053 52 47 44
-0.417475 -0.376481 12.210826 33 45 59
-0.310697 -0.609927 12.298120 41 52 56
-0.354050 -2.267697 13.254964 68 70 56
-0.463248 -2.328183 13.264299 31 27 28
-0.363325 -2.377729 13.374872 12 21 20
-0.356536 -2.568777 12.069037 74 67 74
-0.319270 -2.825605 11.989562 81 68 88
-0.664051 1.000460 13.074881 69 66 61
-0.571849 0.815285 12.671455 196 183 166
-0.560417 0.578746 12.282077 196 171 151
-0.532610 0.586759 12.326844 207 187 163
-0.687814 0.472320 12.321599 187 160 139
-0.556400 0.266838 12.128750 161 137 111
-0.686971 -0.074433 12.234234 39 40 44
-0.652249 -0.272003 12.240196 147 163 163
-0.639340 -0.466321 12.350982 31 38 64
-0.658869 -0.454079 13.739663 99 102 91
-0.611871 -0.605986 12.412759 24 44 55
-0.555027 -0.760628 12.531155 21 29 32
-0.591920 -2.603837 12.259064 114 116 94
-0.760298 0.761303 12.725810 171 144 117
-0.713163 0.820005 12.909737 175 141 116
-0.869312 0.574788 12.756849 159 132 105
-0.737824 0.464183 12.424773 176 145 124
-0.898035 0.222873 12.447686 59 50 53
-0.896571 -0.085016 12.451305 42 41 46
-0.819264 -0.346081 12.474239 110 126 141
-0.848217 -0.373079 12.526043 33 35 50
-0.701238 -0.569451 12.476316 107 135 156
-0.705966 -0.678533 12.602242 93 117 127
-0.804893 -0.706671 12.675322 71 95 95
-0.741401 -2.553743 12.402339 119 113 115
-0.831321 -2.572417 12.534201 141 120 125
-1.038555 0.923562 12.950029 129 101 97
-0.953740 0.368988 12.637261 154 109 80
-0.929415 0.480850 12.733418 46 38 35
-0.911102 -0.474360 12.725894 105 118 109
-0.902873 -0.500647 12.657767 91 106 103
-1.096851 -1.897509 12.837313 78 83 86
-1.059590 -1.967056 12.804587 131 131 105
-1.099857 -2.452621 13.247312 128 152 156
-0.927991 -2.600284 12.680194 67 53 66
-1.014028 -2.583676 12.826696 93 86 94
-1.008366 -2.526989 12.904077 33 39 53
-0.941986 -2.761682 12.644236 93 105 101
-1.210573 0.785883 12.646458 143 124 120
-1.271883 -0.339647 12.863646 148 166 168
-1.224232 -1.041870 12.917944 134 160 159
-1.189340 -1.238361 12.969286 140 159 165
-1.281127 -1.332797 13.020059 118 142 144
-1.117870 -1.726808 12.895579 108 90 112
-1.126497 -1.939997 12.844549 183 187 172
-1.148202 -1.939058 12.943152 112 127 132
-1.284222 -1.972987 13.119087 59 65 63
-1.194165 -2.276496 13.055184 131 141 151
-1.116401 -2.431521 12.964836 122 142 149
-1.174245 -2.430943 13.104553 137 157 164
-1.289459 -2.517213 13.207938 36 34 58
-1.116070 -2.706436 12.848047 51 44 86
-1.180998 -2.843050 13.141711 68 57 91
-1.497883 1.206797 17.626498 230 223 197
-1.321825 1.007612 12.602931 60 58 72
-1.462251 0.975032 12.856747 145 159 159
-1.459832 0.796245 12.891241 124 144 142
-1.423330 0.558237 12.776981 133 153 151
-1.436532 0.549275 12.906740 138 152 153
-1.399596 0.174512 12.924903 133 152 148
-1.490726 -0.014631 13.045408 87 76 82
-1.372401 -0.225870 12.948487 148 164 163
-1.328316 -0.849870 12.997052 118 127 132
-1.311919 -1.668925 13.089879 56 52 66
-1.332179 -1.680804 13.278330 61 96 128
-1.345138 -1.997801 13.123366 176 169 140
-1.302478 -2.123798 13.127622 90 104 104
-1.305689 -2.408020 13.130196 109 124 127
-1.396106 -2.520753 13.229716 144 218 253
-1.693183 -0.266553 11.941318 133 145 145
-1.650877 -0.545736 12.631834 112 98 131
-1.780820 -0.478696 12.319311 107 98 119
-1.982474 -0.196240 11.759741 243 248 242
-3.207625 -0.193976 6.118597 239 246 238
-3.201393 -1.125423 6.823135 29 38 55
-3.560397 -0.409403 5.040268 206 216 191
-4.861845 -0.159190 4.793736 100 105 64
-5.963839 -0.028809 2.025876 48 42 78
593.847956 219.518903 669.340574 159 173 174
389.634706 40.169460 265.097833 188 199 217
387.277166 47.072633 240.305439 28 29 31
357.118911 134.364587 427.326605 234 245 247
323.705673 21.935732 198.388103 152 150 161
286.105968 17.484202 196.305665 139 136 129
277.931428 3.115254 191.679852 111 97 62
272.360326 27.200844 167.336412 173 183 192
267.189429 21.681494 182.456927 30 25 32
253.238100 94.138025 320.853914 190 199 204
249.928290 18.671311 164.753363 179 178 184
238.725102 19.841302 153.040044 69 44 47
217.974399 23.245410 130.023902 151 158 174
202.140730 -13.527821 124.285999 8 12 11
201.513826 -16.616578 132.577859 61 61 71
198.787220 13.234186 117.253102 70 75 71
179.477338 -14.937603 113.565740 58 61 70
130.222841 62.849192 204.019094 139 147 168
119.914288 45.912915 166.903728 226 230 255
102.917506 42.585752 165.295277 124 143 183
91.345780 57.157509 129.016439 125 157 168
78.701590 20.886079 130.296680 106 143 196
77.873090 14.890747 67.064780 26 35 34
62.511117 20.849451 56.517046 33 41 43
61.849572 19.995314 52.841434 69 76 84
60.520039 18.793062 52.775139 179 191 207
60.437496 17.580081 53.605244 18 28 29
59.042820 15.800883 51.454539 199 205 221
55.679249 20.439307 48.865169 196 212 227
53.525369 13.372830 48.369516 28 32 35
44.264677 29.789938 90.709486 88 98 133
43.301241 29.169237 83.281582 92 104 144
40.486702 30.634260 78.993510 234 243 248
38.965792 26.755557 81.994845 95 101 135
38.457635 26.612089 75.933299 83 104 133
34.363984 26.129740 73.183717 78 92 121
30.883663 25.138199 67.256052 84 100 126
29.250044 20.324015 66.021103 150 156 180
28.895138 21.279668 64.145816 77 89 129
27.851953 20.152869 66.450704 98 106 108
27.475374 20.450537 63.444370 72 88 124
26.631750 20.245796 63.652183 160 170 195
25.896912 20.623623 65.364313 88 97 112
25.481482 20.376998 64.624307 87 95 108
24.445292 14.086810 66.952920 104 109 105
23.493357 12.045944 59.052590 250 251 255
22.870023 18.823160 58.286240 82 97 128
22.572710 12.213416 56.237179 164 163 168
21.126517 17.526388 58.669288 163 172 181
20.365766 19.172281 54.736970 221 231 255
19.478907 14.989789 56.763270 116 127 131
19.041914 17.686830 55.751988 86 84 89
18.721562 8.528187 57.229553 102 122 149
17.770519 9.744017 57.299371 220 230 232
17.504792 21.031725 54.784429 225 234 241
15.770017 2.996217 56.645910 149 195 123
15.590001 5.292244 59.615613 132 186 108
14.407679 3.489949 55.096143 209 217 219
13.526493 -0.237449 49.606737 251 252 254
13.454350 2.713274 54.616176 164 176 176
12.536141 3.951266 54.714569 231 239 241
11.847149 4.915868 54.957292 75 86 82
10.986414 0.322525 45.771412 80 92 90
10.331377 9.645544 47.050204 157 192 136
10.194340 15.467718 46.076243 220 224 225
9.135483 -4.482124 20.829490 63 81 95
8.676685 3.642551 48.635147 228 243 248
7.652074 7.514472 45.309780 157 201 126
7.353246 9.828628 43.965438 196 210 219
5.223370 8.039889 41.750687 182 161 132
3.933110 -2.941707 13.372616 172 169 176
1.589676 -1.462577 13.819934 76 83 76
1.514794 -2.091449 12.432478 155 169 180
1.530489 -2.201433 11.277711 189 201 181
1.586030 -2.469397 11.379893 25 38 44
1.382986 -1.682261 11.493881 219 228 243
1.383258 -1.806200 11.678951 76 96 123
1.419138 -2.043013 11.294877 176 190 177
1.378084 -1.936233 11.312408 113 132 147
1.426903 -2.090443 12.484116 152 164 176
1.301885 -2.013197 12.614966 124 135 141
1.423740 -2.197164 11.281641 185 198 178
1.402589 -2.243686 12.493781 136 139 128
1.419045 -2.250953 12.507492 136 139 128
1.327362 -2.274761 12.723861 39 34 30
1.358574 -2.312078 11.226531 109 134 154
1.314695 -2.737889 10.522020 54 49 55
1.192298 -1.625477 13.552630 46 36 27
1.242696 -1.560482 13.746052 197 178 164
1.270173 -1.817220 11.405150 50 53 58
1.266201 -1.723125 11.549373 78 99 128
1.211045 -1.913033 11.421680 171 188 198
1.296012 -2.081268 12.696913 81 92 88
1.232306 -2.222128 11.265740 191 198 182
1.235166 -2.338800 12.582754 226 231 209
1.093743 -1.856734 13.064195 110 143 124
1.012846 -2.266704 11.256078 72 94 115
1.040222 -2.496221 11.410701 3 10 3
0.999618 -2.483301 11.628367 145 145 121
0.943171 -2.795684 10.798505 45 44 76
0.957518 -2.931136 10.831446 27 42 75
0.792996 0.023353 12.964395 79 81 80
0.886563 -1.625719 13.500272 103 80 64
0.736779 -1.732630 13.444884 27 29 28
0.857419 -1.936682 12.835017 187 180 151
0.860375 -2.833416 10.881580 26 39 74
0.727584 -2.732784 11.121947 86 83 90
0.897743 -2.922168 10.870758 26 37 67
0.554135 -1.114586 11.812072 248 253 249
0.631809 -1.620768 13.425562 148 121 92
0.638106 -1.785718 13.412707 89 72 56
0.535224 -2.043961 12.603911 92 125 116
0.591185 -2.472968 11.694655 179 181 168
0.550285 -2.412961 12.011344 220 232 212
0.621668 -2.618333 11.205327 90 91 95
0.679535 -2.547926 11.467772 161 163 160
0.608923 -2.709622 11.179670 61 52 71
0.334164 0.315961 12.213043 210 212 191
0.441580 -1.358403 13.273919 198 183 176
0.477335 -1.697938 13.496381 17 17 15
0.332487 -1.981196 12.808471 195 197 173
0.358746 -2.517529 11.639704 215 221 209
0.117765 0.091781 13.544299 58 49 50
0.285744 -0.727398 12.477102 59 53 53
0.244188 -1.767089 13.489872 142 140 128
0.148348 -2.075307 12.668450 203 202 181
0.105179 -1.977574 13.409628 45 46 40
0.178226 -2.486130 11.965153 30 26 25
0.163372 -2.333167 12.411887 39 52 34
0.158299 -2.488440 12.743098 39 31 29
0.272242 -2.607475 11.555252 32 49 75
0.209998 -2.529829 11.849913 71 56 51
0.260921 -2.858233 11.633909 35 40 70
-0.015829 1.279096 13.423359 87 100 83
0.019097 0.661585 12.262910 225 225 199
-0.046774 0.157707 12.094363 190 193 176
0.069095 -2.064534 13.142761 117 105 89
0.036508 -2.288121 12.548480 142 146 123
0.071745 -2.158484 12.720417 183 185 182
-0.092114 -2.252258 13.037001 83 89 79
-0.068334 -2.231587 13.506961 24 22 25
-0.081122 -2.669043 11.854541 65 59 73
0.019702 -2.819689 11.722121 96 110 113
-0.095014 -2.705184 11.908149 65 55 64
0.050472 -2.916907 11.757442 10 21 41
-0.231311 0.995165 12.696077 240 245 239
-0.199539 0.609813 12.225275 220 225 202
-0.213142 0.350833 12.147170 195 203 180
-0.116424 -0.112351 12.108470 63 65 51
-0.294661 -0.609010 12.323157 44 48 49
-0.123944 -2.252927 13.048776 123 118 96
-0.216203 -2.278428 13.138953 115 117 106
-0.262696 -2.593718 12.041822 95 83 93
-0.233031 -2.542156 12.101621 117 97 99
-0.109079 -2.750499 11.800101 34 42 61
-0.266484 -2.844114 12.068764 78 68 92
-0.384359 0.225970 12.122712 93 87 75
-0.308983 -0.061405 12.107154 156 134 110
-0.376527 -0.220452 12.164473 147 159 155
-0.408182 -0.376630 12.225384 32 46 47
-0.338971 -2.056053 13.008029 51 51 49
-0.349471 -2.259986 13.236824 92 88 76
-0.334540 -2.681626 12.083663 41 36 56
-0.310029 -2.586176 12.140336 78 68 76
-0.543608 0.829289 12.719359 222 212 200
-0.541386 0.587389 12.312189 204 180 154
-0.690608 0.341254 12.274824 168 144 120
-0.690620 0.473564 12.316685 187 162 131
-0.649479 0.271768 12.215661 136 119 99
-0.529941 -0.034431 12.170794 118 122 107
-0.672754 -0.265263 12.296309 49 39 37
-0.641045 -0.464017 12.348113 28 38 47
-0.607493 -0.605749 12.420065 34 42 44
-0.560083 -0.757402 12.522770 24 28 37
-0.559671 -2.290015 13.095032 14 20 20
-0.630166 -2.537348 12.628232 62 40 42
-0.550948 -2.724896 10.739296 23 29 55
-0.877399 0.577023 12.742052 152 118 91
-0.887629 0.385773 12.464138 109 81 70
-0.841176 0.186353 12.277242 92 61 66
-0.871711 -0.160230 12.763149 44 34 32
-0.832516 -0.341594 12.451305 105 124 128
-0.863022 -0.371186 12.500313 27 38 42
-0.707483 -0.568221 12.465805 101 134 143
-0.722176 -0.675595 12.574636 100 120 129
-0.707856 -0.799823 12.677797 31 41 43
-0.753115 -2.546979 12.652580 84 73 77
-0.925944 0.529908 12.650882 173 137 111
-0.973932 0.329607 12.565486 154 110 83
-0.914502 -0.083538 12.420082 45 44 50
-0.904832 -0.504677 12.654836 93 104 100
-1.060545 -1.971137 12.803440 127 125 104
-0.981450 -2.665751 12.734424 39 44 48
-0.926263 -2.770118 12.672205 98 108 107
-1.003959 -2.799503 12.723528 55 65 77
-1.205406 -0.859843 12.736925 122 110 124
-1.220661 -1.037898 12.892490 142 159 166
-1.228126 -1.042208 12.910097 128 157 152
-1.191282 -1.119079 12.761769 122 115 123
-1.246061 -1.475429 12.936819 145 165 166
-1.192718 -1.659057 12.941946 121 139 141
-1.139557 -1.740318 12.870846 84 80 81
-1.134919 -1.941674 12.829370 192 195 174
-1.142856 -1.945092 12.953941 103 119 119
-1.115537 -2.209313 12.955361 114 132 134
-1.110377 -2.435733 12.976387 122 146 146
-1.109692 -2.708897 12.859696 50 40 74
-1.267626 -2.795734 12.971400 68 65 82
-1.405359 1.171980 12.597764 146 150 133
-1.359660 0.998737 12.529969 60 51 52
-1.377287 0.857414 12.625086 142 149 141
-1.488632 0.549174 12.803432 136 153 145
-1.348962 -0.848224 12.956708 133 152 148
-1.340019 -1.000772 12.981772 111 128 120
-1.322386 -1.668087 13.069544 53 49 46
-1.357450 -1.997708 13.099354 189 179 143
-1.398893 -2.024328 13.116155 65 86 115
-1.314298 -2.127684 13.105393 86 108 105
-1.301945 -2.461464 13.120076 74 96 109
-1.302982 -2.512313 13.180888 25 28 33
-1.510141 0.790977 12.790387 127 143 143
-1.605192 0.592820 7.393258 55 60 64
-1.633640 0.085601 12.665814 74 49 42
-2.105139 0.439794 11.995182 209 203 187
-2.338326 0.554609 11.731393 79 71 86
-3.544685 0.027668 9.866467 101 86 107
-4.851203 -0.057520 7.888954 105 97 74
-6.534102 0.348167 4.795763 198 220 234
-8.994803 -0.114688 0.809270 158 223 253
-11.892162 0.434407 0.001989 213 219 245
-11.750561 0.422225 0.114890 213 217 242
2960.586298 1589.681075 3145.135836 194 201 183
2847.311167 378.965261 1291.389769 203 210 216
2037.857087 754.999337 1844.062784 211 222 226
1744.250751 639.693440 1939.965390 180 189 184
1636.220228 500.209599 1903.614580 236 240 239
1596.050595 -189.264006 566.792018 60 38 27
1421.565660 -86.867457 513.858826 90 66 30
1372.284831 238.343993 747.798081 51 65 65
981.244205 -59.524508 536.295568 65 65 75
971.942679 102.628340 548.152122 156 158 157
945.761039 85.878980 460.042396 106 114 116
912.851121 68.829023 392.891550 52 57 51
833.223804 92.556001 413.815332 206 217 211
786.277589 52.558920 436.993207 89 94 97
729.373273 -41.103329 317.163587 117 98 56
681.422596 58.183688 259.547113 162 162 162
653.908834 70.559240 274.365834 196 200 211
651.018624 10.835629 238.488219 100 74 51
642.376203 -5.298506 329.258007 40 44 47
640.775483 76.430614 352.320547 216 216 214
628.054379 11.049461 257.810500 128 97 68
617.841910 89.806309 344.640038 92 136 149
603.129075 53.645807 337.038187 225 226 228
566.305202 57.914804 299.701096 67 78 74
562.809609 210.874239 665.488935 243 245 244
498.564694 87.627258 257.949604 97 100 109
494.200641 69.813731 254.335979 97 95 106
465.211429 -13.811510 220.103660 12 12 12
448.625676 47.841083 155.459231 195 198 207
400.925805 -15.925121 199.210510 34 30 27
376.489414 -24.791924 177.251402 41 43 42
342.367158 -56.102436 124.381433 38 39 41
340.742086 -48.834692 120.452130 135 126 131
334.627180 -50.528946 114.358739 42 43 35
303.417784 -27.272123 142.341032 122 131 128
299.348726 -28.685070 155.257992 129 129 129
285.505929 159.612387 341.031748 247 248 240
272.169402 102.406692 343.987341 199 198 203
269.645660 -24.184323 117.289683 9 19 10
252.456837 -2.084938 115.652542 122 96 61
249.345051 40.689181 128.135772 190 190 202
119.955608 41.823913 170.531300 167 167 167
108.466668 67.652432 150.603723 130 155 162
88.044181 61.636331 139.658025 122 168 217
84.415443 27.341329 72.592340 29 40 44
84.172016 59.170059 134.361481 127 165 212
83.225370 40.687255 132.043821 238 236 237
82.375955 25.209717 68.129829 165 176 172
82.222608 26.131046 66.894883 64 62 73
80.962188 37.221952 132.521906 137 149 163
78.796514 30.593124 130.058403 132 148 174
74.337912 26.648559 61.814267 209 218 225
67.507600 16.778270 58.311629 36 35 31
58.689937 15.316345 54.470228 210 217 225
49.409870 33.349400 87.000147 238 242 241
36.634329 6.797592 67.021695 58 80 200
30.893608 5.345594 64.756095 55 51 110
29.700701 20.602035 66.766266 151 158 177
28.334285 20.988792 64.872570 76 83 112
28.452302 20.596075 67.503583 102 105 114
28.412969 2.461689 59.072422 251 252 255
27.336090 21.948837 58.784043 239 243 242
27.328394 20.641978 64.833831 161 162 180
26.559217 12.504823 60.828244 149 189 199
25.715245 9.844173 60.476591 227 232 235
25.345164 3.639749 58.580454 155 163 166
24.987065 7.005288 58.894058 101 138 191
24.741991 8.232655 58.438992 95 135 184
24.478047 3.599439 58.328046 97 119 169
24.195660 12.379217 60.270947 250 252 251
24.195120 8.602979 63.551254 140 136 125
23.722887 3.328173 60.939011 36 73 141
23.615582 4.224149 63.245264 194 194 186
23.417063 19.267312 59.255890 78 95 111
23.455397 10.759203 60.134102 35 75 147
23.034375 2.105166 57.174881 208 210 222
22.795471 9.564560 61.123408 143 145 134
22.353350 9.809962 61.880881 85 88 97
22.189113 18.266167 60.650397 170 171 173
21.881540 2.576025 54.038659 80 82 141
21.301909 6.314068 58.313967 79 76 83
21.072827 19.604116 55.964828 229 231 246
21.028814 3.436157 60.501724 131 154 185
19.968725 15.265742 57.688690 131 131 131
19.879520 18.267317 57.333453 74 82 85
19.788658 9.719669 58.311277 207 208 213
19.686702 2.050212 56.440226 118 123 116
18.771663 8.547734 57.328574 121 118 145
18.352632 0.809581 44.871347 128 139 145
18.247682 0.808042 55.734660 166 151 128
18.094132 3.201348 57.105353 211 219 204
17.531166 1.355800 55.808981 201 208 174
17.300221 9.358227 56.325267 224 227 220
15.524405 2.941438 56.106373 158 192 116
15.507680 -0.105901 48.538413 251 252 255
14.995246 -1.256038 48.417854 240 241 236
14.810983 -7.066015 20.115394 82 78 79
14.426972 3.486362 55.136291 216 216 216
13.390590 2.688278 54.463568 175 177 174
12.954633 1.673427 49.988096 224 226 223
12.337070 -0.208831 47.130303 246 252 252
11.572367 0.385270 47.030864 87 94 78
11.166364 15.624170 42.323791 232 232 232
9.562396 -0.058144 44.040884 239 212 183
4.872576 -0.472706 16.485438 175 177 153
4.160001 -2.382444 13.028480 52 53 58
1.590372 -1.456478 13.773466 64 81 73
1.572943 -1.862388 11.394537 166 231 251
1.673835 -2.210615 11.307210 97 111 124
1.605053 -2.298072 12.662006 141 138 119
1.571186 -2.464917 11.369820 25 24 30
1.556554 -2.719902 10.496780 170 223 255
1.431024 -0.336592 12.997237 90 80 78
1.358588 -1.581519 13.503345 205 216 210
1.305607 -1.715896 11.577553 91 107 132
1.358963 -1.938066 11.391289 138 147 162
1.456686 -2.096036 12.508568 148 158 167
1.344161 -2.087164 12.737869 98 95 80
1.386088 -2.204484 12.757096 128 129 121
1.306352 -2.366377 12.360826 216 220 195
1.412794 -2.712235 10.460596 133 117 120
1.351573 -2.736376 10.544097 54 35 29
1.354350 -2.942507 10.654534 56 54 78
1.219809 -1.679148 13.621418 39 29 20
1.176631 -1.901389 11.580257 40 65 87
1.173718 -2.061727 12.818009 56 33 15
1.253669 -2.218581 11.280354 197 204 186
1.162285 -2.471051 11.811939 26 28 23
1.263462 -2.328380 12.606178 226 232 206
1.161266 -2.664804 10.673726 150 127 133
1.125762 -2.802444 10.780145 50 49 67
0.914643 -1.628682 13.528008 98 72 49
0.941730 -1.747512 13.359337 35 29 29
1.019453 -2.482747 11.643201 142 137 108
1.086183 -2.558880 11.358325 110 103 95
0.930956 -2.773422 10.883498 43 47 72
0.956068 -2.722852 10.925733 66 49 59
0.976159 -2.920303 10.842714 28 43 66
0.756107 -1.733040 13.464154 33 29 28
0.729347 -2.603945 11.084254 130 117 124
0.808983 -2.548293 11.359825 151 131 132
0.858672 -2.891558 10.961872 27 27 37
0.654644 0.432639 12.563352 220 220 194
0.363982 0.020232 12.355815 195 204 175
0.460086 -1.379750 13.293406 217 188 156
0.424813 -2.364221 11.811314 237 240 223
0.475024 -2.362956 12.495654 114 107 99
0.365565 -2.600791 11.515604 118 119 123
0.117757 -1.002754 12.723195 60 56 57
0.252299 -2.014448 13.029073 28 30 27
0.103791 -2.062649 13.178499 100 101 87
0.254004 -2.186502 12.695472 20 22 17
0.122649 -2.498794 12.025456 96 96 86
0.100871 -2.462030 12.490195 80 70 58
0.139607 -2.458111 12.722616 37 28 23
0.148668 -2.405408 12.945063 67 67 65
0.292979 -2.555087 11.694690 92 58 49
0.155735 -2.613893 11.826211 149 150 142
0.165826 -2.821981 11.554060 43 45 68
0.016519 0.760689 12.479484 232 235 204
-0.065710 0.201522 12.124243 109 93 67
-0.018079 -1.233933 13.032681 178 233 253
0.020977 -1.836526 11.610031 245 246 250
-0.082720 -2.099781 13.210472 142 141 113
0.058745 -2.293175 12.570023 156 145 113
0.086843 -2.154837 12.735137 156 152 127
-0.082127 -2.249905 13.047101 102 105 76
0.069783 -2.521972 11.909607 145 143 128
-0.089941 -2.549365 12.160932 149 123 124
0.030254 -2.815500 11.730684 92 105 114
0.042891 -2.907528 11.750194 31 29 50
-0.295856 -0.008191 12.124673 120 93 64
-0.105672 -0.111305 12.118467 80 72 51
-0.229280 -1.382876 12.962257 98 98 96
-0.108465 -2.255680 13.065147 115 118 91
-0.116500 -2.170065 13.179518 35 36 28
-0.110750 -2.698886 11.893847 54 54 56
-0.213464 -2.606672 12.088167 122 106 107
-0.120291 -2.777211 11.841385 88 84 81
-0.272317 -2.835369 12.062696 81 68 86
-0.419214 0.968787 12.732172 245 246 240
-0.466198 0.896792 12.637827 252 251 233
-0.370233 0.636103 12.310278 210 218 181
-0.414966 0.439095 12.252166 183 178 136
-0.350622 0.252035 12.105896 182 184 163
-0.308458 -0.057861 12.107708 158 129 99
-0.400084 -0.128036 12.155050 52 46 48
-0.413806 -0.410722 12.268397 141 153 153
-0.468397 -0.602449 12.367631 34 36 49
-0.336623 -2.297555 13.043815 56 58 37
-0.331400 -2.665691 12.085236 64 53 61
-0.421830 -2.632986 12.174983 67 64 59
-0.350161 -2.763760 12.099240 35 38 53
-0.346137 -2.704420 12.105997 46 39 55
-0.367237 -2.905184 12.167052 58 65 73
-0.548172 0.834064 12.714818 218 210 199
-0.521805 0.514313 12.265107 109 82 61
-0.550102 0.583562 12.303289 205 172 139
-0.644344 0.327541 12.230848 167 138 120
-0.684633 0.474603 12.322752 182 149 118
-0.640825 0.273787 12.224410 152 126 99
-0.579836 -0.099337 12.194853 156 164 151
-0.674010 -0.265270 12.295018 75 63 49
-0.682446 -0.306288 12.316926 125 134 141
-0.589036 -0.583850 12.388721 110 129 144
-0.565071 -0.750716 12.517279 29 30 35
-0.591359 -2.604284 12.268137 110 112 101
-0.611398 -2.652382 12.347789 142 127 104
-0.679469 -2.589335 12.551480 169 151 163
-0.590474 -2.911510 12.345695 64 89 96
-0.760550 0.759590 12.702723 197 162 142
-0.831743 0.530410 12.354591 177 152 122
-0.770006 0.662616 12.535819 198 179 165
-0.712394 0.304635 12.276152 115 80 60
-0.824673 0.493468 12.497068 63 38 33
-0.806987 0.149464 12.304625 161 134 117
-0.798553 -0.128388 12.565060 106 127 130
-0.863557 -0.323162 12.487758 45 38 45
-0.863155 -0.413690 12.536734 117 147 137
-0.706613 -0.567810 12.466795 105 129 139
-0.773662 -0.616905 12.592399 46 48 45
-0.728873 -0.772771 12.694293 80 95 100
-0.776551 -0.856081 14.063691 247 247 247
-0.889673 -2.223418 12.730339 17 26 23
-0.899020 -2.499792 12.874817 65 46 42
-0.842861 -2.687420 12.637329 47 42 62
-0.772106 -2.826402 12.481242 42 43 63
-0.715119 -3.086126 13.662336 52 42 66
-0.910194 0.459897 12.543409 160 132 111
-0.904287 0.172499 12.427449 98 70 46
-0.953514 0.249854 12.526746 131 101 75
-0.910781 -0.082218 12.424107 45 40 34
-1.038686 0.001138 12.615664 76 52 42
-1.021728 -0.101921 12.613780 71 42 36
-0.904680 -0.355786 12.543835 103 117 117
-0.900281 -0.504536 12.659993 96 109 100
-0.992711 -2.659192 12.721577 43 42 47
-1.093371 -2.528335 12.938143 85 79 81
-0.952588 -2.793401 12.681847 33 31 42
-1.001849 -2.796780 12.725804 52 73 76
-1.141187 0.880496 12.770160 129 101 90
-1.146743 -1.515368 12.816699 125 109 122
-1.196397 -1.655948 12.937462 129 142 133
-1.134917 -1.994133 12.865796 74 77 82
-1.293797 -1.976617 13.094052 75 62 53
-1.123392 -2.107589 12.893846 70 81 77
-1.123001 -2.205864 12.946794 125 126 128
-1.256287 -2.369249 13.097369 45 45 43
-1.103404 -2.548690 13.002265 106 99 107
-1.108008 -2.711077 12.862248 43 34 63
-1.187679 -2.820546 13.068689 52 42 66
-1.273537 -2.954033 13.203271 27 41 76
-1.435410 1.407990 12.612299 125 120 90
-1.397247 1.175722 12.607203 143 151 130
-1.344044 1.058017 12.549666 102 110 89
-1.372956 0.860210 12.630128 144 146 135
-1.413008 -0.221397 12.878723 147 156 151
-1.373789 -0.492976 12.929288 140 151 147
-1.396834 -1.314936 12.588781 115 107 120
-1.300946 -2.462230 13.121717 62 96 106
-1.698122 -1.012465 12.348736 142 158 145
-1.602132 -1.179374 12.393948 120 106 121
-1.808819 -0.616814 12.490682 143 158 153
-2.813745 -0.719716 7.806459 13 14 16
-3.062778 -0.776950 10.712137 28 30 29
-3.013007 -1.216751 11.347529 137 145 134
-3.370148 -0.305402 10.703421 113 70 63
-3.945391 -0.146049 10.070433 254 255 255
-4.014027 -0.760578 10.428433 89 70 63
-4.879001 0.847952 14.414892 156 192 102
-4.948524 -0.172852 8.299845 230 233 206
-5.299191 0.523505 7.579274 178 173 167
-5.386648 -0.016249 7.564935 201 213 255
-6.125784 -0.268283 7.509295 78 67 63
-6.821642 0.815508 8.205055 184 155 121
-7.687963 -0.126674 6.679453 51 52 46
-7.597173 -0.103503 6.808685 122 115 96
461.244209 94.282651 103.750087 196 201 207
151.561920 20.924678 78.844476 207 212 215
139.724447 19.329647 73.612739 208 213 216
131.036887 13.603916 67.893451 115 107 88
127.260069 14.439805 61.640132 202 206 217
125.921901 11.304209 56.022261 171 167 166
124.644860 9.883858 62.609263 64 62 63
123.818717 2.014425 53.257280 107 82 42
122.414025 38.098993 82.492013 47 59 55
117.710789 36.682226 26.444698 249 245 246
117.061570 14.359390 31.744615 200 193 187
116.676794 11.202825 66.310627 128 129 131
115.530972 13.587760 66.835572 220 217 208
114.987460 5.897487 50.964768 223 222 220
113.863554 -7.704241 50.162622 105 75 41
112.028287 16.672689 66.206759 93 97 96
111.246928 -13.307347 45.128751 114 125 111
110.423837 16.987527 71.042370 96 118 131
108.993760 -14.809191 41.974905 44 44 32
108.794756 12.207688 44.902916 196 205 202
108.544085 17.632181 27.869306 130 93 85
108.252406 -9.337394 44.339805 23 23 25
107.946332 11.613699 28.413176 87 77 68
107.756437 6.696349 31.400222 186 182 179
107.135372 14.631695 27.672654 162 132 122
106.902515 19.345176 28.711682 220 220 220
106.324541 17.010834 38.384228 200 208 210
102.453871 1.862190 50.550451 127 105 68
102.322921 -11.251258 38.658360 17 21 20
101.940509 19.118380 61.560942 108 108 110
101.075830 -7.474923 55.356387 44 51 43
100.264624 -9.686586 50.013100 19 19 17
99.172308 18.412031 49.939323 200 211 205
98.894198 -14.542990 33.799200 14 18 17
97.699351 12.504459 63.408440 223 222 220
96.656071 9.609270 35.105532 15 19 18
96.292225 -14.949358 40.869259 143 133 131
95.444172 -18.452068 26.619293 65 85 86
91.799089 -15.193412 38.204068 50 52 39
91.309483 36.812420 93.192550 85 96 90
90.308315 -13.020211 28.690479 89 89 89
89.891995 -15.537368 31.935347 36 39 32
88.769699 36.069939 94.516824 217 222 225
88.290211 19.827209 95.535644 213 217 218
88.142429 -15.299365 29.948712 170 170 170
83.799185 14.478652 50.272907 193 203 204
83.722246 12.754795 21.520812 237 236 234
83.865645 -16.537405 28.577271 40 39 35
82.854861 8.441056 19.403435 114 110 107
81.279348 -13.550666 26.878402 7 12 8
80.310787 -15.243332 26.182832 27 30 23
80.168861 -16.744316 25.386782 32 38 36
79.331051 9.168873 21.257407 228 224 223
78.466612 -14.474293 20.333428 13 15 14
77.892827 2.536196 18.810334 133 120 127
77.561589 -15.657145 19.621720 128 139 97
76.723392 1.971829 24.111941 163 160 151
75.863802 18.714489 100.394249 215 213 198
75.295971 -15.818107 17.595296 7 9 6
72.392314 -9.811308 23.688582 8 12 13
72.072840 -17.832669 19.240558 62 69 61
70.507815 24.328073 57.086528 213 218 222
69.071220 42.653593 88.467785 183 183 175
68.213173 13.841228 78.659232 167 176 181
67.975540 -1.067572 21.562443 17 17 15
67.666115 9.130166 18.250566 116 110 110
64.413755 14.924939 62.096458 193 193 195
62.999288 10.980433 82.146462 69 94 91
60.832432 25.213913 83.839481 187 187 187
59.162159 20.629397 85.430916 238 240 239
55.909985 11.942411 69.998264 155 155 165
55.085314 21.688890 77.308480 194 198 199
51.581041 22.139018 76.636987 244 244 242
50.902081 32.362162 74.818023 244 241 234
49.882959 15.120223 45.198824 71 72 74
49.524762 9.634945 73.785501 197 174 80
46.871707 10.088056 68.459441 210 208 211
45.902000 15.734383 42.921221 69 69 69
45.843783 13.126182 43.393376 194 197 202
44.701317 15.626570 44.582969 40 41 43
44.317015 10.858564 68.808599 224 130 68
44.215586 -8.193057 47.283567 13 17 18
43.974920 9.097258 61.553868 189 173 158
43.666614 14.563821 42.099372 157 157 155
42.256119 13.220753 41.775546 26 30 29
42.149594 8.924685 67.859649 225 219 221
40.153445 10.630556 67.528811 226 227 222
39.522531 10.971208 40.943243 214 215 220
39.325518 16.304532 40.429691 55 53 56
38.567256 16.026310 39.924148 53 53 55
35.527557 15.361581 39.385264 209 214 217
35.264486 14.279849 63.058793 173 170 165
33.563856 19.556027 59.188370 233 233 245
33.682412 9.246852 61.975845 171 169 180
33.407989 15.269532 36.298534 178 177 175
30.670988 5.628150 44.514370 184 184 172
30.297932 5.964265 44.920003 144 137 127
30.224220 5.243547 44.942225 153 143 133
28.059388 15.376708 57.275387 236 239 230
27.574986 17.356918 56.502999 239 240 235
27.463297 15.734956 41.704056 196 183 190
27.257329 -1.706623 16.021798 20 19 24
26.994726 13.940880 57.260011 146 149 158
26.458863 15.718649 56.336800 155 156 161
26.234983 1.713353 41.388128 66 62 63
26.030945 5.495418 49.824750 167 162 166
24.318930 16.594714 53.875682 160 158 159
24.421447 3.401351 39.648670 253 253 253
23.721732 6.602108 51.562119 254 254 254
23.288822 3.286949 38.588047 253 253 253
23.078055 8.940912 52.980927 116 147 178
22.722097 0.952952 37.544796 180 171 162
22.382167 1.071094 36.115198 77 79 74
21.038710 16.961329 48.117300 240 241 233
19.332630 4.146194 44.230957 60 80 201
18.618142 1.821934 45.417570 250 251 253
16.587178 -0.457496 34.241048 125 126 147
15.529858 14.030056 44.194539 94 96 109
14.831527 12.645534 43.796043 160 157 174
14.600981 -0.893774 31.569018 199 197 202
14.358994 2.464950 42.066800 111 104 120
14.185230 12.997612 42.933045 66 72 94
14.171599 12.734870 44.431433 106 105 111
14.114938 6.089223 45.519670 33 52 108
14.033187 3.060687 40.318344 66 52 105
13.953544 1.870513 41.955862 84 77 110
13.645098 12.816841 43.049555 160 159 167
13.638135 6.318859 41.869862 230 228 229
13.156213 8.477065 41.793514 141 156 159
13.182838 7.781659 40.564988 118 177 183
13.267796 5.390704 40.937011 110 133 174
13.135686 1.344906 41.671863 216 217 222
12.970249 8.414727 41.516114 147 153 153
12.908488 5.443693 44.351475 139 135 126
13.029285 4.474383 40.628288 112 133 186
12.972062 2.255187 43.213436 39 70 135
12.670156 8.054500 41.773252 246 246 248
12.610780 2.728586 44.280942 196 187 182
12.303016 4.372635 43.302592 110 101 86
12.136921 12.564669 41.070238 83 86 93
12.264690 7.014730 41.815173 23 69 131
12.003413 4.842606 43.708476 55 53 40
11.980554 0.803594 37.316976 97 100 107
11.590496 1.816551 43.446945 200 188 188
11.573891 1.507903 40.376598 48 73 137
11.391489 6.046356 41.724505 145 145 143
11.293558 1.228240 40.809017 212 187 147
11.252342 0.555835 35.021813 133 140 146
11.106174 0.648041 35.442955 171 171 171
11.003772 12.998057 39.574103 230 228 239
11.034835 6.136153 42.095887 108 104 101
11.028541 2.235277 42.702086 131 153 176
10.794373 4.166586 40.519214 101 89 93
10.626496 7.853435 42.114149 69 63 63
10.527788 0.692490 39.940415 198 154 93
10.322357 0.510351 41.576977 155 138 118
10.281203 12.180409 40.618100 82 80 81
10.123812 1.308960 39.970368 121 112 105
10.021142 6.781147 40.617392 105 102 119
9.742572 6.300549 40.422857 210 210 210
9.646408 5.695825 40.811914 121 124 133
9.691788 -0.143504 38.689533 252 252 254
9.330602 0.878341 40.745198 203 202 171
8.184230 2.386769 34.271642 176 179 198
7.867668 -0.912015 36.120683 246 239 229
2.184096 -0.982456 13.816984 116 124 101
2.259736 -2.522037 11.217671 100 98 111
1.571561 -2.258076 10.900094 174 235 254
1.694655 -2.107017 11.182192 174 232 254
1.515709 -2.299886 12.347031 170 160 133
1.549737 -2.340581 12.342748 120 110 98
1.558595 -2.950475 12.309482 74 69 66
1.357979 -1.433028 13.618610 60 66 62
1.343296 -2.078013 12.445440 153 151 152
1.333582 -1.907093 12.957682 202 163 130
1.416435 -2.193322 11.283998 188 197 168
1.307019 -2.497915 11.359970 26 28 23
1.417882 -2.320282 12.530011 46 33 27
1.499451 -2.690356 10.474854 181 224 255
1.403752 -2.802168 10.443065 75 59 69
1.357879 -2.736263 10.546452 43 24 26
1.415309 -3.050856 10.481909 43 59 72
1.324149 -2.926925 10.642369 92 72 100
1.118763 -1.639878 13.309778 148 162 139
1.298890 -1.924925 11.363562 147 161 164
1.254021 -2.008630 12.600953 164 163 158
1.232786 -2.212757 11.270814 201 199 184
1.252803 -2.181715 12.679302 132 135 114
1.116130 -2.459004 11.788478 42 39 34
1.227094 -2.457398 11.954274 192 190 167
1.126799 -2.566193 11.377258 123 118 114
1.278404 -2.721986 11.274191 169 148 143
0.922083 -1.676440 13.385315 161 155 139
1.084761 -1.670438 13.530970 51 37 24
1.049412 -2.295241 11.287978 103 120 138
1.052830 -2.219589 11.556248 85 81 106
1.080051 -2.267447 11.911866 68 78 79
1.068152 -2.292781 12.493703 233 229 200
0.921756 -2.488056 11.651090 202 204 167
1.022203 -2.324947 12.335970 233 232 202
0.934158 -2.771144 10.884724 51 47 70
0.971070 -2.724857 10.932156 71 59 61
0.978774 -2.917202 10.843636 36 54 78
0.718081 -1.815929 12.912398 105 109 95
0.719619 -1.720126 13.129145 51 47 20
0.729597 -1.752205 13.330944 34 33 28
0.770108 -2.256676 12.561096 219 218 190
0.704041 -2.443619 11.659573 157 145 123
0.795284 -2.453521 12.014139 219 217 202
0.747808 -2.318570 12.213970 239 242 223
0.771770 -2.614083 11.103688 118 103 110
0.805056 -2.546518 11.357929 165 123 127
0.890808 -2.898447 10.975910 22 22 32
0.519384 -1.934430 12.753594 92 98 84
0.508590 -2.498285 11.546125 127 123 124
0.698880 -2.558082 11.316776 123 94 90
0.493600 0.129334 12.254203 19 20 22
0.451464 -0.131377 12.283328 170 178 155
0.333362 -2.075026 13.107382 85 78 62
0.473946 -2.389062 12.222517 191 178 162
0.386177 -2.606440 11.526374 120 121 126
0.235090 -2.019826 12.738662 202 197 167
0.172241 -2.002418 12.974753 26 25 21
0.263285 -2.272579 12.438024 137 157 146
0.181038 -2.163649 12.561431 41 27 26
0.219301 -2.408819 12.014445 220 219 199
0.193882 -2.338631 12.371840 49 53 28
0.160707 -2.305774 12.928488 131 126 96
0.234806 -2.595906 11.638659 185 177 154
0.102325 -2.595672 11.795825 149 147 148
0.194596 -2.835101 11.569908 45 44 62
-0.070758 0.200420 12.121258 112 103 72
-0.032215 -0.596395 14.651007 139 113 112
-0.060474 -0.717312 14.524207 104 95 114
-0.093893 -2.045840 13.175771 65 56 49
0.092301 -2.149932 12.590415 31 28 23
0.080120 -2.252781 12.812682 27 20 14
-0.008566 -2.434162 12.420394 89 68 51
0.098055 -2.333694 12.936165 22 22 20
0.098040 -2.647904 11.681983 97 83 98
