ply
format ascii 1.0
element vertex 1191
property float x
property float y
property float z
property uchar diffuse_red
property uchar diffuse_green
property uchar diffuse_blue
end_header
-1.528701 -2.644062 13.638120 91 77 112
-1.562773 -2.611608 13.758142 100 98 109
-1.586573 -2.524654 13.943127 127 127 101
-1.599838 -2.560926 14.331579 45 52 98
-1.654217 -2.626494 14.625109 45 49 58
-1.659704 -2.641188 14.709028 52 70 90
-1.666988 -2.542321 14.993467 96 98 137
-1.658063 -2.620997 15.134446 74 76 115
-1.511955 -2.796366 12.737099 42 48 98
-1.514006 -2.717173 13.204088 28 38 73
-1.512578 -2.836091 13.308730 25 43 79
-1.528169 -2.826065 13.639837 36 45 86
-1.516942 -2.826652 13.735934 61 69 80
-1.543117 -2.817174 13.975014 20 32 74
-1.580960 -2.807324 14.107854 61 85 111
-1.568310 -2.811128 14.334291 13 32 72
-1.699034 -2.732262 15.290323 132 205 255
-1.522289 -2.900087 12.788963 66 69 120
-1.517833 -2.902474 13.428010 53 66 118
-1.714242 2.107965 14.690504 207 209 188
-1.753090 1.925190 14.292965 174 171 136
-1.763124 2.054649 14.317745 148 154 128
-1.765323 2.023249 14.697363 107 125 113
-1.812267 2.097291 14.758072 224 220 191
-1.716341 1.874405 14.295809 125 120 101
-1.703922 1.723292 14.315588 155 149 125
-1.769553 1.863913 14.527868 133 145 141
-1.751568 1.863048 14.748487 86 97 89
-1.749145 1.513610 14.361326 114 108 108
-1.733053 1.599663 14.697930 138 147 152
-1.813915 1.587106 14.746420 134 125 108
-1.727185 1.471972 14.394623 140 121 123
-1.743017 1.486285 14.637396 123 142 140
-1.718544 1.321378 14.777535 127 147 148
-1.732332 1.146116 14.461723 109 81 80
-1.702586 1.113023 14.668016 126 146 147
-1.709561 1.144959 14.797457 129 140 134
-1.707299 0.998207 14.451413 131 113 109
-1.708953 0.925204 14.511719 93 72 77
-1.714156 0.764635 14.512026 93 82 86
-2.035545 1.113787 13.875921 81 65 68
-2.441923 9.121547 27.946969 140 124 111
-2.494815 8.833473 28.120407 167 154 138
-2.317114 0.747232 11.771677 197 205 194
-2.617752 -1.088808 9.461033 94 90 79
-2.704671 -1.653779 8.708121 163 165 177
-2.987713 0.545106 10.473635 216 228 208
-3.334654 -1.832199 7.774598 69 153 241
-3.798934 -1.588322 7.880625 172 154 168
-4.443907 0.673904 9.296342 123 95 81
-4.418430 0.460260 8.901514 170 162 139
-4.836929 -0.989357 7.079789 81 115 150
-4.717113 -1.474232 8.801846 135 130 100
-4.973433 0.537141 8.444255 137 115 104
-5.069191 0.353225 8.284267 69 63 65
-5.409638 0.219590 7.338220 76 56 45
-5.456884 -0.983443 7.969237 66 55 53
-5.786672 -0.887349 6.201987 203 213 205
-6.567018 -0.345936 5.587626 114 125 109
-6.816111 0.643543 4.424609 83 102 108
-6.834919 0.260838 4.505707 109 93 94
-6.811057 -0.277218 5.800501 91 106 103
-6.788873 -0.188507 6.308601 70 59 65
-6.936921 0.632347 4.338821 68 93 98
-7.069342 -0.073932 5.162740 50 56 56
-6.990689 -0.222183 5.906422 60 62 113
-7.186528 -0.352067 5.130418 98 80 68
-7.496085 0.519557 4.302598 99 73 72
-7.481800 -0.082622 5.422304 80 75 79
-7.312140 -0.093855 5.738919 56 55 61
-7.578453 0.012002 4.827094 127 109 107
-7.716115 -0.009152 4.000785 99 105 79
-8.222262 0.036776 3.906401 103 114 97
-8.461653 0.203007 3.883273 56 51 48
-8.558118 0.124894 3.462266 105 94 92
-8.857094 0.170085 2.922285 115 120 142
-9.014539 0.220869 2.890266 50 65 106
-8.914473 0.151965 3.148416 33 31 52
-9.458295 0.246368 2.452611 59 88 130
-9.504206 0.280478 2.363362 80 89 84
-9.782787 0.198182 1.975478 129 111 107
-10.890515 0.475837 0.497850 122 124 113
-10.766970 0.497109 0.797920 58 54 68
-11.081889 0.690348 1.040522 199 208 223
-10.998277 0.307339 0.804178 162 227 255
-11.256186 0.271470 0.035136 106 102 101
98.839055 2.794109 114.262692 109 116 109
94.979527 24.267205 92.132920 24 39 58
90.452678 -1.375816 106.879690 109 116 109
64.036598 10.478880 41.381363 122 218 240
56.929565 20.564228 32.136812 133 142 151
55.354266 7.496758 29.830086 72 138 225
51.770688 0.951003 67.827523 131 143 129
51.184598 14.470296 27.061431 100 117 173
47.221017 9.019222 28.692732 115 197 234
45.280606 3.430315 25.081273 58 94 168
45.021524 3.434435 24.980509 51 98 170
42.720810 16.642033 27.891993 42 58 73
41.682686 15.385112 32.587404 97 103 129
40.322253 3.630989 24.814516 253 252 255
38.737485 12.611331 28.455375 93 93 103
37.986820 4.596931 24.012841 54 165 236
37.685344 10.768352 27.760906 102 143 175
37.374221 4.575141 23.754532 43 166 234
37.446414 4.061668 28.016473 166 204 225
36.944919 11.535212 27.967072 144 156 168
37.000539 8.663674 27.792887 118 145 156
36.762485 15.277677 26.996921 98 105 151
36.319833 9.437059 30.901322 99 105 101
36.279626 12.566197 24.993889 61 125 222
36.020399 2.370065 23.836376 55 73 207
35.864486 8.751875 27.838864 169 186 206
35.715688 2.364245 23.704563 49 72 204
35.690981 11.905538 21.888649 167 170 203
35.307174 14.663410 25.882329 72 78 114
35.383638 14.183544 25.961280 63 77 112
35.389347 13.675746 26.005404 61 75 110
35.427536 13.191422 26.064968 63 86 120
35.397364 12.659962 26.095615 67 90 124
35.439663 12.365832 26.646779 138 146 182
35.326967 10.027660 29.326452 141 150 159
35.175000 13.530019 28.996280 105 111 145
34.963603 6.713857 26.898274 106 167 185
34.916349 1.457417 27.528557 213 220 239
34.668907 12.860403 26.078370 102 111 150
34.517430 12.826925 26.458893 51 69 107
34.316079 7.020759 29.267972 30 68 153
34.159150 13.016007 28.032162 68 90 114
34.242179 12.225277 22.284935 157 172 205
34.034584 15.211377 26.013848 48 62 109
34.013921 12.809964 26.893977 163 171 208
34.080704 11.942222 24.002507 68 129 220
33.768258 13.218535 27.506785 51 65 102
33.890108 12.048666 21.328186 61 86 116
33.472380 15.190923 26.312988 153 166 200
33.340500 -0.076434 26.048782 240 252 252
33.048650 10.966814 18.074270 163 171 190
32.949322 -1.463112 18.831176 177 186 203
32.925863 -13.328127 36.986830 72 73 127
32.775701 6.984618 26.258122 189 206 224
32.758979 6.488839 29.279889 131 136 142
32.363586 3.253254 30.327068 63 118 209
32.064089 4.290754 30.143898 73 118 211
31.919703 2.407025 25.986169 98 109 131
31.981851 0.743158 26.817124 44 66 149
31.841900 8.078100 26.672515 143 152 169
31.721537 7.546018 27.166772 246 251 255
31.722621 1.846672 30.642321 181 190 221
31.862891 1.416010 30.218877 101 152 209
31.656632 3.035286 26.179542 157 178 233
31.662503 2.487106 26.491852 76 128 212
31.357788 12.137963 28.310153 158 167 182
31.403480 7.061802 25.722331 188 200 214
31.383303 4.834325 30.085161 122 155 208
31.398061 1.476428 31.061785 182 183 203
31.285212 11.802091 19.880917 208 214 230
31.254842 4.491619 26.011851 45 94 187
30.907724 3.440347 33.972234 135 186 109
30.769274 10.834406 18.330465 224 236 250
30.700360 4.760820 29.656722 122 155 206
30.802472 0.365298 20.006804 217 235 255
30.696120 6.864570 29.415928 181 180 188
30.555215 2.524676 30.284182 99 105 137
30.580566 0.330482 30.292545 170 168 181
30.232006 11.578621 18.714239 129 140 158
30.192859 5.643468 29.624733 84 100 136
29.973970 -13.963620 33.943005 72 154 236
29.814850 7.686632 28.976349 108 113 116
29.868409 1.578781 27.053401 31 75 162
29.600578 14.044465 30.903769 213 227 227
29.533760 4.427696 35.399517 122 174 102
29.353413 13.362734 26.106649 215 226 254
29.399714 11.847117 19.105001 157 164 183
29.393305 1.684255 32.114270 136 185 130
29.217313 12.457502 27.511504 84 83 99
29.174430 11.542189 27.029712 156 165 182
29.289516 -1.533635 18.781638 78 84 100
29.040303 8.634696 25.836163 133 147 156
29.012882 3.956774 33.838919 152 187 155
29.001310 2.250360 32.527736 204 219 226
28.797737 3.792663 34.691266 60 81 84
28.388270 11.511270 20.641475 56 77 142
28.313258 2.769043 33.787357 223 239 254
28.009644 13.480794 30.725862 158 209 142
27.837764 1.673309 32.594066 129 159 157
27.385466 1.657922 33.761368 155 175 176
27.177750 6.517342 28.494915 208 224 237
27.179188 -0.385433 24.989011 105 121 147
26.903191 -1.071063 24.143812 110 120 145
26.833458 2.513092 34.134340 193 216 234
26.795790 -1.236863 23.267737 18 32 35
26.698140 1.975366 33.899406 222 242 253
25.768804 -0.980120 22.592158 43 60 80
25.791621 -1.546655 20.783022 136 156 191
25.855562 -2.052683 18.020488 249 252 255
25.678932 -0.541390 31.468178 132 147 170
25.650300 -0.873136 29.785727 248 252 255
25.145971 -0.328462 30.260031 75 86 92
24.900929 -0.665548 25.096608 59 76 84
24.738570 8.076616 30.699156 154 175 168
24.628102 -0.980684 27.217723 248 252 255
24.128815 13.235795 29.136114 216 231 238
24.228113 -8.491884 17.281360 170 186 183
23.921225 -0.699064 23.467270 131 144 163
23.572285 -0.633850 25.050730 80 95 118
23.234791 7.770355 29.765569 160 160 172
23.012656 -0.172023 21.696085 250 251 255
22.762553 -2.309399 17.018665 210 227 253
22.577698 -2.158439 19.188913 180 191 221
22.300107 9.344955 30.807548 229 241 255
22.386201 -13.294121 16.373839 102 103 123
21.845910 -12.870678 16.652313 107 118 138
21.786118 -13.078350 16.083175 80 85 104
21.589750 -13.011638 16.009950 79 90 108
21.308660 -13.030383 16.627668 12 13 17
21.026000 9.345620 31.046826 178 202 246
20.831033 -1.128954 28.322270 228 221 205
20.160836 7.727852 31.023739 166 159 133
19.106604 10.921039 31.423730 174 163 135
18.718669 8.489361 27.843617 233 241 254
14.752795 -8.208584 14.401833 85 92 85
13.876392 -8.343580 14.111564 98 100 95
13.618769 9.843613 30.816900 175 160 139
8.387602 -6.999531 20.926403 59 56 101
6.608231 -3.422813 9.870226 147 215 252
5.507536 0.251254 19.273324 133 147 132
4.672869 8.433683 29.595937 187 179 156
4.048824 8.895088 29.278685 158 151 133
3.718277 9.896455 29.199773 158 150 131
3.839992 -0.206490 18.519771 49 58 67
3.812783 -0.736941 14.531550 237 247 248
3.854654 -4.663765 16.391589 127 117 126
3.545008 0.194443 18.190867 120 141 132
3.529381 -3.930389 12.849852 65 137 213
3.163441 -3.783771 9.671036 172 174 171
2.980418 -3.052015 11.946142 60 103 146
2.892863 -3.759591 9.623454 179 181 176
2.313444 -2.694459 11.352944 199 201 200
2.436221 -2.696707 11.512868 161 166 162
2.343893 -2.581262 12.008502 165 228 255
2.405636 -2.884368 11.409719 156 225 254
2.329555 -2.945020 11.471571 112 132 139
2.414815 -3.231396 11.419639 136 210 255
2.466995 -3.618411 9.734027 150 200 253
2.157091 -2.684826 11.331638 192 194 181
2.211901 -2.630869 11.548825 176 174 161
2.235692 -2.586871 11.833418 164 165 157
2.165038 -2.593875 11.919700 141 138 159
2.188244 -2.888972 11.433227 116 125 140
2.252417 -3.052975 11.485555 144 160 173
2.258723 -3.043783 12.651851 56 61 57
2.187013 -3.283955 11.456744 75 150 218
2.299676 -3.517446 9.564691 203 229 255
2.138670 -3.808181 9.612873 175 182 175
1.935139 -0.798635 14.057237 233 247 248
1.924406 -2.227019 12.632862 166 210 255
1.925699 -2.665203 11.403880 162 165 158
2.097860 -2.673154 11.591323 156 164 167
2.078556 -2.612980 12.023776 143 140 149
2.074422 -2.529099 12.258238 142 139 156
2.042457 -2.988646 11.416058 96 119 135
2.073542 -3.169392 11.420772 121 132 128
1.744934 1.599451 14.579179 108 92 93
1.841897 -1.334980 14.538194 165 229 254
1.801977 -1.679190 13.305120 164 138 103
1.739066 -1.524122 14.639832 181 160 131
1.747275 -1.825337 13.269187 145 129 93
1.701990 -1.971334 13.270947 159 126 81
1.712760 -1.924400 13.314097 156 133 92
1.860202 -2.263190 12.431478 164 180 205
1.868483 -2.254767 12.513201 161 171 170
1.739298 -2.236900 12.708586 176 212 212
1.830335 -2.223700 12.927182 234 246 236
1.745000 -2.145456 13.294773 106 93 77
1.870894 -2.697211 11.501546 146 142 156
1.784455 -2.721602 11.339460 172 173 194
1.898019 -2.734486 11.582442 165 149 159
1.850796 -3.047139 11.439280 138 168 178
1.753624 -3.146536 11.391682 80 77 106
1.526944 1.529146 14.507645 92 84 82
1.567293 -1.422802 13.528138 168 229 255
1.508121 -1.481289 14.285792 183 157 130
1.691343 -1.356105 14.846233 95 73 75
1.621130 -1.608119 13.493754 161 128 85
1.551729 -1.519851 13.525816 181 172 155
1.511523 -1.782589 13.342371 78 80 75
1.553312 -2.014457 13.344981 66 71 74
1.663428 -2.296276 12.300702 187 213 212
1.523253 -2.214842 12.701156 236 242 238
1.525484 -2.427653 11.928197 170 179 176
1.609613 -2.695305 11.379942 142 139 156
1.537122 -2.678046 11.518276 153 146 162
1.510345 -2.533480 11.778629 118 122 105
1.632208 -2.725157 11.335867 172 172 180
1.683960 -2.705708 11.550147 173 163 174
1.689885 -2.905920 11.406056 140 156 171
1.530789 -3.259803 11.446839 35 61 112
1.401614 1.774261 14.466776 109 98 94
1.309258 1.668749 14.573471 124 107 100
1.342661 1.485288 14.542271 105 101 92
1.398048 -1.417757 15.081606 82 64 50
1.391328 -1.658846 13.418431 162 140 101
1.324363 -1.647884 13.569963 120 111 82
1.308316 -1.546061 14.584118 199 170 128
1.492299 -1.851904 13.334424 59 71 67
1.447439 -1.806902 13.508639 58 60 72
1.378959 -2.222799 12.687992 186 215 221
1.368287 -2.211602 12.787696 191 216 220
1.375012 -2.199623 12.946006 193 219 216
1.443975 -2.498936 11.902603 54 63 60
1.392733 -2.348889 12.125617 173 175 153
1.447384 -2.667315 11.666331 160 162 174
1.470894 -2.509342 11.866743 187 182 163
1.401498 -2.628176 11.964319 156 157 161
1.340600 -2.763384 11.317368 76 84 149
1.371446 -2.929662 11.417459 139 163 173
1.411584 -3.186413 11.414566 101 102 133
1.368653 -3.549767 9.539167 167 200 253
1.152251 1.914947 14.491311 108 94 91
1.159049 1.745738 14.553950 125 110 107
1.280502 1.669505 14.611353 106 95 91
1.150408 -1.411099 13.492014 178 184 174
1.125973 -1.438672 13.502996 122 124 119
1.274498 -1.518270 13.486476 177 178 172
1.227892 -1.504137 13.518812 100 107 89
1.270127 -2.218979 12.694301 240 247 239
1.215286 -2.339251 11.678279 162 226 254
1.278102 -2.418561 12.029564 31 46 51
1.288079 -2.341928 12.130587 170 172 159
1.126270 -2.668463 11.477449 151 147 164
1.267336 -2.694233 11.505456 161 159 170
1.233078 -2.594662 11.709464 143 146 151
1.160575 -2.604932 12.127652 69 67 72
1.178726 -2.767440 11.285193 55 73 135
1.224586 -2.818548 11.307704 86 96 158
1.150768 -2.988150 11.385561 140 174 176
1.211256 -3.257391 11.359823 70 138 219
1.191582 -3.105034 11.734944 92 94 155
0.934831 1.528775 13.986415 91 80 84
1.081753 1.671988 14.547904 119 99 101
1.037787 -1.260399 14.778145 77 67 66
1.066078 -1.441884 13.573943 78 106 107
1.011508 -1.681048 13.822304 95 132 138
1.044103 -1.805435 13.604660 66 68 67
0.925669 -2.004254 13.397650 209 231 244
1.054874 -2.466766 12.092013 20 29 28
1.050005 -2.387385 12.130642 176 175 155
1.069583 -2.687830 11.515325 147 145 156
1.021722 -2.628679 11.819312 123 111 125
1.072580 -2.597407 12.008527 132 126 130
1.037018 -2.799591 11.260923 89 99 152
0.925620 -2.711354 11.410705 169 161 176
0.996815 -2.958104 11.317677 147 169 182
1.041371 -3.196319 11.362259 60 71 116
0.970254 -3.569251 9.503545 190 218 255
0.814450 1.861278 14.487970 133 119 108
0.701171 -1.335846 14.821242 87 69 65
0.827897 -1.547804 13.490127 103 138 140
0.742753 -1.582418 13.606159 176 198 212
0.849279 -1.833075 13.537638 101 94 76
0.809903 -2.260054 12.445266 195 197 176
0.881343 -2.449489 12.255730 97 85 73
0.873818 -2.371490 12.310779 57 61 64
0.776542 -2.660675 11.581315 162 165 170
0.721406 -2.610819 12.078329 163 151 161
0.881828 -2.570591 12.369108 64 68 53
0.800522 -2.735601 11.265244 207 185 206
0.838006 -3.089194 11.389924 113 122 131
0.751445 -3.256303 11.304552 64 135 217
0.774512 -3.301246 11.422305 22 61 118
0.868419 -3.696487 9.412983 207 214 220
0.798213 -3.783915 9.504874 208 219 225
0.509916 0.437818 13.194975 179 182 173
0.618899 -0.274114 13.438175 147 170 184
0.563293 -1.489495 14.620386 68 64 65
0.577354 -1.575052 13.612417 99 135 121
0.543418 -1.613817 13.919401 94 76 66
0.618557 -1.886201 13.292350 173 143 115
0.651435 -1.835663 13.462414 81 78 63
0.621922 -1.899091 13.511005 63 47 31
0.590914 -1.903481 13.365133 61 61 51
0.615021 -2.641012 11.603260 85 84 89
0.676760 -2.736672 11.259717 218 208 233
0.698683 -2.893686 11.312713 146 156 155
0.568032 -3.211241 11.330832 89 89 139
0.647746 -3.846845 9.503721 183 189 187
0.452112 1.652926 14.271909 106 107 112
0.364098 0.748858 13.190130 205 189 166
0.437411 0.508476 13.155207 173 153 142
0.348098 0.494558 13.103514 98 100 95
0.317323 0.172086 13.077211 142 134 121
0.354071 0.254282 13.109403 100 112 110
0.350800 0.036093 13.130547 149 140 135
0.432888 -0.224781 13.278114 159 172 178
0.415891 -0.121873 13.334011 122 113 116
0.470038 -1.481667 14.038559 138 118 94
0.384550 -1.689176 13.457058 93 128 130
0.446381 -1.628237 13.592730 78 110 107
0.384138 -1.618598 13.825630 31 40 35
0.438791 -1.632961 14.139290 94 76 56
0.446257 -1.540998 14.571182 66 65 60
0.317691 -1.744173 13.466089 96 130 132
0.411248 -1.992377 12.061321 197 218 221
0.440413 -1.933061 13.234228 131 104 74
0.411092 -1.985049 13.409469 34 33 28
0.497854 -2.082781 13.558358 46 48 35
0.346032 -2.253899 13.491308 76 88 84
0.442652 -2.640693 11.644151 157 172 165
0.444241 -2.616118 11.959757 168 158 169
0.433142 -2.760538 11.270129 186 172 187
0.467616 -2.727041 11.347082 157 158 176
0.386913 -3.135302 11.297218 71 67 81
0.409437 -3.226879 11.322472 98 90 139
0.138754 1.972980 14.473617 120 118 121
0.244839 1.569917 14.129330 38 41 50
0.281588 1.255716 13.541005 217 220 201
0.185096 0.951504 13.208866 224 219 213
0.112156 0.723402 13.098246 199 170 152
0.214690 0.712496 13.122210 196 180 164
0.230815 0.513947 13.060445 130 139 120
0.230234 0.430650 13.038780 183 190 174
0.178027 0.329866 13.141056 134 150 139
0.181722 0.155865 13.057721 166 175 158
0.130444 0.055731 13.067361 110 121 113
0.275286 -0.169829 13.197621 69 79 88
0.152634 -0.479145 13.333928 109 128 124
0.281096 -0.413244 16.127474 10 41 70
0.242234 -0.813655 13.758117 105 117 107
0.123710 -1.075681 14.339112 65 71 71
0.118338 -1.151310 14.417280 68 68 68
0.152201 -1.103496 14.519885 25 27 22
0.104096 -1.474507 14.526454 45 47 44
0.284499 -1.687410 13.727181 119 138 134
0.106620 -1.558374 13.974732 83 70 51
0.238210 -1.592286 14.561269 96 109 115
0.256485 -1.773961 13.498498 102 134 133
0.101624 -1.818565 13.544189 92 116 118
0.132506 -1.963869 13.433372 27 47 36
0.171753 -2.287796 13.296946 131 140 139
0.283219 -2.207789 13.409387 108 106 107
0.232528 -2.197052 13.513124 78 81 70
0.247369 -2.684103 11.294635 171 175 174
0.207123 -2.633607 11.475865 183 184 179
0.280628 -2.639092 11.594259 69 71 70
0.265650 -2.623011 11.891010 113 111 125
0.247723 -2.629114 11.936090 127 119 134
0.201097 -2.770785 11.200855 68 68 102
0.178777 -2.802942 11.808920 154 163 162
0.297977 -2.904757 11.251644 54 64 66
0.188857 -2.933809 12.272584 114 96 96
0.187219 -3.122402 11.265299 137 151 164
0.117828 -3.213738 11.310884 85 74 114
0.206168 -3.800451 9.411520 181 190 189
-0.003338 1.932360 14.428719 105 81 79
0.059943 1.839443 13.999668 59 74 97
-0.085979 1.813899 14.106885 78 92 79
0.049821 1.815341 14.479300 104 87 77
0.053413 1.624085 14.051052 52 62 61
-0.071716 1.670393 14.251222 60 63 54
-0.059324 1.652908 14.435377 70 69 64
-0.052161 1.226990 13.364287 226 214 198
-0.001003 0.958352 13.169803 152 146 134
0.059247 0.760126 13.095870 200 172 150
-0.009827 0.837650 13.106902 192 174 152
-0.075408 0.653598 13.012553 170 149 128
0.014014 0.483150 12.996114 150 145 126
0.011816 0.134998 13.018208 161 176 155
-0.038514 -0.013799 13.064498 121 139 141
0.086524 0.002784 13.113273 120 137 129
0.046083 -0.169715 13.072321 98 86 88
-0.005043 -0.234866 13.178437 114 140 139
0.056183 -0.412122 13.272163 85 91 87
-0.021882 -0.631455 13.434909 117 123 111
0.093814 -0.686949 13.530868 114 126 112
-0.074423 -0.719016 13.517351 99 100 86
-0.086343 -0.921422 13.800819 47 43 32
0.001087 -1.225217 13.756370 77 60 53
-0.096408 -1.219112 14.280979 45 51 49
-0.051295 -1.495635 14.427551 100 99 81
0.084057 -1.685101 13.673012 148 156 132
-0.008563 -1.693144 14.094881 17 18 20
0.001631 -1.659632 14.284355 72 74 69
-0.076887 -1.603996 14.380814 92 97 93
-0.050593 -1.898043 13.467812 185 183 158
0.057323 -1.799261 13.556141 72 104 93
-0.043738 -1.780585 13.898529 100 98 77
-0.010091 -1.702666 14.349478 73 78 71
-0.033142 -2.064110 13.434653 125 120 91
-0.067865 -2.292518 11.781529 18 18 20
-0.007211 -2.282953 13.274535 121 130 125
0.077375 -2.279919 13.359525 151 150 146
-0.048805 -2.232591 13.565864 131 135 108
0.034970 -2.683899 11.244999 89 90 82
0.028270 -2.653857 11.478096 148 158 159
0.080965 -2.698560 11.532910 85 86 81
0.080224 -2.750784 11.179878 154 133 152
-0.055085 -2.713328 11.331294 140 141 145
0.081609 -2.954811 11.240893 25 44 77
0.043397 -3.086676 11.307593 56 61 80
0.095627 -3.131534 11.298306 28 33 63
0.064709 -3.126380 11.325268 124 141 151
-0.144387 1.935043 14.472878 132 113 107
-0.212595 1.797831 14.481798 107 88 74
-0.277121 1.874729 14.529589 101 86 81
-0.126542 1.644621 14.286698 65 73 62
-0.164827 1.690720 14.476495 44 46 41
-0.168927 1.311366 13.464748 175 181 177
-0.245617 1.441888 13.680791 169 165 154
-0.124338 1.479642 13.767098 225 206 189
-0.130073 1.127063 13.272295 96 96 94
-0.121291 1.230468 13.356285 244 250 236
-0.104315 1.020930 13.168290 213 198 169
-0.120262 0.719316 13.059530 177 180 163
-0.119932 0.710122 13.121165 173 177 152
-0.105170 0.602201 12.983128 167 159 138
-0.130968 0.333629 12.999230 177 186 165
-0.119001 0.280590 13.015780 167 177 166
-0.196492 -0.044273 13.063368 164 176 174
-0.193513 -0.139515 13.089562 122 137 134
-0.163959 -0.296360 13.178943 75 81 81
-0.124983 -0.321207 13.194026 124 126 113
-0.299830 -0.511438 13.276000 106 103 94
-0.167226 -0.637742 13.420544 130 121 106
-0.117658 -0.729691 13.506593 64 56 53
-0.168040 -0.738654 13.720890 86 67 53
-0.156648 -1.269608 14.309187 32 42 33
-0.191075 -1.409144 14.352687 56 66 58
-0.154508 -1.695745 14.386453 106 109 98
-0.200772 -1.894959 13.453587 58 81 75
-0.177024 -1.748300 13.647602 99 103 88
-0.129892 -1.791064 14.233277 57 59 46
-0.168034 -1.810096 14.316920 51 53 48
-0.175463 -1.760748 14.782301 21 34 27
-0.237444 -2.038780 11.896390 152 176 202
-0.100144 -1.909980 13.406398 135 140 118
-0.207468 -2.229342 12.804293 66 88 109
-0.253246 -2.240930 13.482046 88 88 76
-0.109734 -2.309165 13.276007 205 212 194
-0.131974 -2.643716 11.591005 102 103 107
-0.246903 -2.637694 11.701057 112 119 103
-0.175682 -2.612084 12.461502 68 83 104
-0.260309 -2.746485 11.140450 94 79 122
-0.189505 -2.701097 11.414102 166 159 166
-0.155366 -2.914592 11.298277 113 128 147
-0.226091 -3.003305 11.350882 146 176 178
-0.114064 -3.114722 11.316858 102 120 120
-0.342990 1.901814 14.389275 99 82 75
-0.387819 1.865756 14.466389 128 103 106
-0.457971 1.529850 14.278879 194 168 151
-0.383576 1.318786 13.455677 239 248 227
-0.400262 1.379576 13.537388 222 233 217
-0.449440 1.492290 13.849288 201 183 163
-0.365793 1.257794 13.385539 237 247 236
-0.304834 0.932923 13.125051 223 228 221
-0.451387 1.090319 13.945353 212 223 209
-0.353846 0.711406 13.029237 177 186 165
-0.304598 0.892250 13.118168 225 230 207
-0.354086 0.546148 13.024585 93 97 83
-0.322274 0.393398 12.984748 70 75 68
-0.358162 0.111667 13.043263 160 173 155
-0.307206 0.094131 13.050818 169 181 167
-0.363248 -0.090354 13.100267 132 150 138
-0.380037 -0.291344 13.186293 129 135 133
-0.321650 -0.381252 13.241000 76 67 58
-0.361693 -0.495630 13.347971 105 91 91
-0.302035 -0.587634 13.370542 60 51 54
-0.477783 -0.710218 13.423360 75 62 54
-0.412162 -0.734455 13.557807 37 39 34
-0.499933 -1.081693 14.254859 41 49 38
-0.311658 -1.220044 14.246096 41 51 50
-0.341494 -1.105664 14.340707 35 37 36
-0.424265 -1.404404 14.348169 15 27 23
-0.462261 -1.779733 11.849736 129 157 181
-0.491773 -1.714436 11.995583 94 111 137
-0.350952 -1.871564 13.535685 172 166 132
-0.311514 -1.729697 14.519402 42 48 48
-0.366736 -1.824266 14.827813 45 41 38
-0.456204 -2.067518 11.696685 54 80 113
-0.442228 -1.906059 11.789173 47 59 83
-0.411037 -1.945773 13.495654 64 103 102
-0.476734 -1.910278 13.511747 198 199 159
-0.428780 -1.938557 14.272652 64 67 58
-0.474903 -2.205675 11.698281 76 88 112
-0.303839 -2.128457 11.700025 76 103 132
-0.408263 -2.260075 13.470222 136 138 114
-0.365012 -2.465461 11.601337 26 29 44
-0.411961 -2.388292 12.836010 163 171 174
-0.435062 -2.355827 12.904009 161 175 176
-0.390315 -2.369647 13.718047 95 98 89
-0.397130 -2.639890 11.637470 40 36 33
-0.335720 -2.657922 11.751096 41 43 42
-0.478705 -2.758815 8.114075 175 179 180
-0.415421 -2.748694 11.213654 135 122 131
-0.491447 -3.007854 11.280080 128 152 162
-0.398330 -3.106361 11.426071 118 135 127
-0.498865 -3.315383 11.236452 69 145 233
-0.342090 -3.849005 9.414053 187 191 190
-0.621266 1.931831 14.494429 125 107 103
-0.664892 1.787851 14.462930 107 80 71
-0.627322 1.820107 14.576224 104 87 79
-0.597148 1.511033 13.960100 196 174 160
-0.643577 1.575875 14.442573 112 106 108
-0.565473 1.362577 13.575274 238 245 229
-0.605975 1.450732 13.812957 223 213 186
-0.676787 1.492739 14.151856 192 175 159
-0.553028 1.120104 13.305771 245 251 237
-0.519137 0.919426 13.183565 198 210 190
-0.578435 0.733797 13.097115 202 208 194
-0.656410 0.706236 13.103435 203 208 185
-0.521947 0.629805 13.057904 195 193 172
-0.584742 0.521866 13.149871 170 174 157
-0.525833 0.488317 13.036511 130 113 95
-0.650444 0.441181 13.109839 154 163 146
-0.512043 0.232267 13.075508 118 129 112
-0.627444 0.113562 13.121737 138 151 144
-0.517814 0.025821 13.068217 147 153 151
-0.637463 0.014695 13.146869 175 185 160
-0.549686 -0.194869 13.199479 63 73 72
-0.521780 -0.350848 13.258085 113 104 89
-0.605825 -0.490819 13.342523 82 71 69
-0.532960 -0.522588 13.421589 47 47 45
-0.526980 -0.585680 13.505077 84 63 60
-0.681874 -0.686792 13.706724 81 78 71
-0.590729 -0.736237 13.672638 23 34 26
-0.626374 -0.810323 13.780039 68 57 51
-0.573407 -0.930887 13.983304 25 25 23
-0.662201 -1.077735 14.224421 19 28 25
-0.655171 -1.164579 14.081852 73 74 66
-0.502551 -1.147192 14.228232 68 65 50
-0.665857 -1.698590 14.767204 62 50 52
-0.587043 -1.617313 14.924194 55 41 40
-0.535173 -1.855708 11.802366 35 42 68
-0.634798 -1.869303 11.987495 19 28 57
-0.516827 -1.827083 12.102268 81 101 128
-0.504284 -1.849512 14.844234 34 36 31
-0.643261 -2.096698 11.834071 50 59 68
-0.523506 -1.931296 12.025273 87 116 146
-0.595188 -1.949967 13.494762 173 167 141
-0.630986 -1.960135 13.710720 136 138 133
-0.569053 -1.956361 14.232779 115 114 96
-0.612700 -1.976601 14.362564 59 68 63
-0.504858 -1.966686 14.868762 24 28 29
-0.646346 -2.289844 11.815650 168 186 188
-0.668496 -2.125952 12.084756 52 75 93
-0.657928 -2.258934 12.410901 70 93 111
-0.522710 -2.296374 13.496171 131 127 115
-0.619832 -2.279730 13.554822 24 35 27
-0.672669 -2.129978 14.282759 87 97 98
-0.649741 -2.148319 14.522214 77 78 80
-0.646622 -2.424635 11.696766 30 35 57
-0.564957 -2.482681 11.737448 25 27 50
-0.691069 -2.394497 12.828598 221 231 223
-0.544274 -2.340109 12.977507 213 228 207
-0.669168 -2.371160 13.262097 165 172 165
-0.513903 -2.336720 13.416318 147 150 133
-0.602025 -2.337466 14.399543 66 67 59
-0.574271 -2.692549 11.489402 133 115 127
-0.565438 -2.652948 11.659200 97 92 89
-0.542846 -2.601953 11.742601 10 10 10
-0.531499 -2.884223 11.227478 68 76 122
-0.559566 -2.716073 11.417866 119 104 133
-0.583024 -3.092670 11.259823 108 121 111
-0.541061 -3.042801 11.320964 130 164 176
-0.559656 -3.269066 11.234647 37 48 94
-0.542574 -3.342778 11.288572 67 159 236
-0.838781 1.934573 14.378770 98 80 68
-0.747806 1.754565 14.441821 96 71 66
-0.723549 1.675615 14.446849 66 62 63
-0.726492 1.582303 14.507867 129 105 103
-0.856800 1.315940 13.685327 152 156 142
-0.801591 1.397585 13.876050 191 196 174
-0.821105 1.424985 14.003680 192 189 154
-0.727286 1.485922 14.169641 182 166 151
-0.882018 1.475019 14.435125 106 90 77
-0.771588 1.456078 14.532916 102 83 77
-0.722199 1.113054 13.372452 231 244 226
-0.790044 1.188707 13.521602 233 247 232
-0.725702 0.907914 13.200942 215 227 205
-0.844731 1.090268 13.406363 245 251 237
-0.700471 0.773742 13.165704 208 221 201
-0.733057 0.682895 13.145417 197 208 191
-0.734409 0.316394 13.109393 165 177 167
-0.715754 0.245629 13.082843 143 145 132
-0.804531 0.140598 13.171809 166 187 168
-0.708948 0.089459 13.200802 158 179 162
-0.713592 -0.147602 12.737125 136 156 154
-0.740330 -0.120834 13.234993 163 179 169
-0.818044 -0.234402 13.332536 149 166 173
-0.739376 -0.486414 13.487261 90 87 78
-0.862846 -0.461231 13.520383 110 126 123
-0.831795 -0.604976 13.621365 23 28 31
-0.829111 -0.657654 13.705854 72 70 73
-0.781314 -0.734456 13.730538 46 47 42
-0.778658 -0.868711 14.070933 13 23 22
-0.751734 -1.199123 14.178203 60 69 66
-0.734670 -1.304546 14.210228 16 19 28
-0.762550 -1.897757 13.623816 194 199 179
-0.712827 -1.852781 14.784089 77 57 58
-0.730080 -2.077458 11.891987 171 193 191
-0.785100 -2.076347 11.940528 177 194 188
-0.830659 -2.032987 13.444105 185 180 150
-0.757150 -2.059342 13.691210 26 26 28
-0.765010 -2.029121 13.824359 69 81 69
-0.706977 -2.016315 14.457160 12 21 18
-0.835701 -1.958052 14.834784 46 41 38
-0.719551 -2.213546 11.876406 42 48 48
-0.774243 -2.110598 11.916544 180 199 193
-0.727173 -2.284223 13.387506 82 91 70
-0.827791 -2.177519 13.511791 65 115 112
-0.892265 -2.223571 13.723100 133 134 118
-0.833263 -2.249747 14.246206 19 21 20
-0.736996 -2.252440 14.330830 28 32 35
-0.862890 -2.258940 14.601742 52 51 46
-0.858767 -2.259203 14.704079 66 71 67
-0.777588 -2.379921 11.895728 98 115 143
-0.827719 -2.381717 11.929306 68 95 114
-0.798210 -2.490001 12.114097 48 58 70
-0.846769 -2.492598 12.300606 137 138 130
-0.839434 -2.490447 12.544315 107 105 106
-0.785558 -2.423883 12.716350 218 234 221
-0.811907 -2.387689 12.972496 210 228 212
-0.774468 -2.358969 13.236048 144 148 151
-0.753055 -2.337462 13.335596 194 199 179
-0.776484 -2.317014 14.389277 45 39 49
-0.724982 -2.558415 8.342662 160 227 254
-0.829860 -2.671201 11.771396 138 123 126
-0.840502 -2.632390 11.928965 93 82 90
-0.867688 -2.585554 12.103160 35 36 40
-0.868112 -2.514150 12.493995 198 208 200
-0.703049 -2.514360 12.523584 115 115 117
-0.728578 -2.771498 11.162901 174 150 174
-0.730063 -2.716627 11.515873 122 107 126
-0.851855 -2.786027 11.823887 96 68 82
-0.777837 -2.990910 11.177534 140 162 175
-0.720852 -3.268010 11.215970 27 54 101
-0.793561 -3.152687 11.320161 103 114 120
-0.919079 2.004211 14.387181 117 107 118
-1.096914 1.818641 14.348586 100 85 82
-0.988116 1.721769 14.538213 106 81 77
-0.910595 1.675818 14.414047 69 64 68
-1.099571 1.505596 14.526170 110 86 76
-0.980882 1.331340 13.898684 143 147 124
-0.923418 1.347946 13.926014 155 165 138
-0.956321 1.358738 14.158980 145 146 128
-0.999075 1.420089 14.466692 52 47 44
-1.058351 1.104574 13.609702 229 238 219
-1.082367 1.189749 13.724013 194 197 186
-1.074562 1.251402 13.911201 195 193 172
-1.089571 1.285030 14.163164 124 111 92
-1.071414 1.258049 14.454017 68 64 55
-1.017062 0.996141 13.336027 200 212 202
-1.086737 1.069556 13.649352 193 205 191
-0.904990 0.724342 13.289060 175 183 162
-0.984258 0.797706 13.332899 214 219 199
-0.938355 0.589692 13.214176 173 181 157
-1.061485 0.694542 13.330788 172 181 160
-0.970318 0.491248 13.214670 186 202 189
-1.065768 0.347724 13.301530 166 172 158
-0.978705 0.261972 13.153257 144 158 145
-1.049794 0.231796 13.304563 113 118 114
-0.900843 -0.043555 13.280822 119 141 139
-1.090513 0.075072 13.365078 150 170 168
-0.960707 -0.125062 13.349303 125 158 151
-1.067448 -0.299879 13.584832 121 149 163
-0.925951 -0.429168 13.468208 60 59 75
-1.013201 -0.409658 13.612581 103 119 106
-1.062181 -0.489617 13.755700 34 36 48
-0.969513 -0.584969 13.637325 50 70 69
-0.968875 -0.580735 13.723164 55 59 60
-1.062225 -0.650801 13.982309 26 27 29
-1.053552 -0.687954 14.478410 36 50 59
-0.967654 -0.722744 14.048092 53 49 48
-1.051836 -0.734198 14.209050 49 50 52
-0.954739 -0.772527 14.373963 22 27 30
-0.943533 -0.747781 14.559221 26 46 53
-1.043750 -1.697509 14.792330 69 61 59
-0.958698 -1.803767 14.785244 85 71 68
-1.076178 -1.909429 14.833119 86 81 77
-0.907150 -2.280407 11.981817 67 97 125
-0.938449 -2.218243 13.540087 101 132 98
-0.917798 -2.165906 13.921470 15 24 23
-0.999487 -2.275447 14.398691 78 67 73
-0.946299 -2.272855 14.589567 46 47 51
-0.970165 -2.286114 14.739095 61 61 61
-0.923181 -2.345219 11.994910 66 89 130
-0.943361 -2.300922 12.102598 89 115 142
-0.910425 -2.485304 12.637252 145 156 152
-1.055265 -2.449248 12.714406 160 158 159
-0.923238 -2.375071 13.108564 171 183 173
-1.051499 -2.302210 13.655135 37 35 38
-1.058007 -2.456512 13.756723 58 47 51
-0.996089 -2.353514 14.262961 54 44 45
-0.975799 -2.322704 14.530328 63 53 51
-1.063356 -2.683939 11.684252 146 125 144
-1.075591 -2.676104 11.734529 153 143 152
-0.936654 -2.597457 12.223637 76 77 79
-0.917873 -2.540314 12.393872 171 173 159
-1.029426 -2.507102 12.560362 156 173 167
-1.037428 -2.792260 11.151400 91 67 81
-0.984356 -2.748182 11.450843 144 141 150
-1.028314 -2.708276 11.628354 149 131 145
-0.982094 -3.075307 11.239684 128 155 166
-0.955090 -3.243967 11.207211 104 91 117
-1.286776 1.919989 14.297552 60 57 52
-1.111927 1.911836 14.351103 90 75 72
-1.217247 1.856696 14.362443 138 125 117
-1.106348 1.641159 14.396950 150 127 119
-1.129439 1.327940 14.081314 176 185 154
-1.117201 1.353851 14.439589 81 67 66
-1.145573 1.158131 13.877606 84 85 77
-1.256984 1.181357 13.986556 176 142 115
-1.232984 1.161365 14.155320 79 64 57
-1.169109 1.180710 14.328242 151 128 122
-1.120078 1.008227 13.575702 225 232 216
-1.166374 1.071512 13.718192 141 132 123
-1.291042 1.093799 14.070512 180 162 152
-1.285309 1.099198 14.330422 71 63 42
-1.106653 0.869695 13.427368 216 231 212
-1.177862 0.812794 13.507961 203 212 191
-1.235895 0.671947 13.493558 172 175 156
-1.180610 0.623759 13.512716 171 182 166
-1.238126 0.442396 13.377185 158 170 156
-1.178409 0.336604 13.556108 141 121 97
-1.101800 0.201988 13.378925 142 161 157
-1.297406 0.202992 13.525583 129 127 115
-1.281167 0.169324 13.723407 118 122 107
-1.109715 0.049821 13.294775 134 146 142
-1.118268 -0.049302 13.444517 148 172 172
-1.166222 0.038559 13.561227 107 128 133
-1.101382 -0.109249 13.486817 146 164 166
-1.199691 -0.286631 13.696569 42 49 57
-1.215818 -0.255759 13.703021 42 45 50
-1.273611 -0.243876 13.971093 91 128 146
-1.268044 -0.296840 14.543040 34 44 46
-1.104057 -0.384410 13.641180 122 136 121
-1.130569 -0.402731 13.717735 77 80 87
-1.249331 -0.455779 13.949611 40 46 60
-1.290694 -0.452222 14.257591 75 107 120
-1.258758 -0.480981 14.422217 17 37 44
-1.122444 -0.560724 13.820050 25 32 42
-1.111157 -0.573236 13.966497 67 67 65
-1.153108 -0.640214 14.138557 50 55 61
-1.106130 -0.658856 14.346268 23 30 38
-1.131259 -0.570268 14.502996 45 56 74
-1.205309 -1.003882 14.712172 56 50 50
-1.293254 -1.226470 14.711089 46 42 41
-1.279037 -1.357992 14.759800 43 43 43
-1.274489 -1.536010 14.805951 49 48 46
-1.221766 -1.863455 14.696667 67 56 54
-1.245703 -1.828407 14.795334 79 68 66
-1.245507 -2.087692 11.387056 153 165 161
-1.276474 -2.042412 14.648422 63 54 49
-1.122480 -1.972510 14.821063 85 74 70
-1.230116 -2.292418 14.395891 58 52 52
-1.143951 -2.250855 14.773876 130 115 86
-1.252432 -2.492843 12.661040 105 109 108
-1.111248 -2.465754 12.750903 167 170 163
-1.139594 -2.421814 13.022892 179 180 175
-1.273553 -2.470293 13.242775 67 68 72
-1.264879 -2.452644 13.336406 58 61 50
-1.236025 -2.423935 13.555118 99 84 81
-1.184582 -2.400755 13.735801 88 74 73
-1.288196 -2.391761 14.083009 64 55 60
-1.215778 -2.355110 14.189864 101 76 80
-1.255467 -2.317466 14.350265 111 82 87
-1.161499 -2.693196 11.648214 147 134 144
-1.144621 -2.689150 11.722436 179 171 184
-1.230636 -2.692968 11.919895 107 87 98
-1.272049 -2.666102 12.162400 137 127 138
-1.287921 -2.601865 12.342039 184 177 184
-1.184463 -2.512768 12.567495 52 61 70
-1.262865 -2.527120 12.758871 164 173 170
-1.154133 -2.783960 11.269249 171 158 167
-1.132942 -2.744247 11.418279 130 110 122
-1.188666 -2.774258 11.502774 146 134 146
-1.286520 -2.810426 11.720498 69 60 79
-1.294324 -2.712385 11.995279 168 155 165
-1.273694 -2.876668 13.110010 53 51 88
-1.258753 -2.904200 11.138616 126 108 124
-1.290094 -2.983250 11.475530 81 75 111
-1.288540 -2.940036 11.608768 75 72 117
-1.275491 -3.160870 11.165678 89 87 136
-1.290163 -3.135655 11.596850 74 68 114
-1.286693 -3.151369 11.883654 35 53 93
-1.291405 -3.102482 11.991593 38 41 94
-1.371592 1.973733 14.295679 105 103 78
-1.406127 1.907903 14.373324 113 118 88
-1.407986 1.878832 14.232378 57 53 52
-1.340311 1.803044 14.371237 76 60 63
-1.347690 1.552709 14.434091 101 90 86
-1.311271 1.463918 14.372369 99 78 77
-1.362559 1.384108 14.524157 114 96 94
-1.363562 1.198002 14.435476 92 68 64
-1.315727 0.907304 13.780642 45 45 43
-1.302645 1.053834 13.932300 186 160 133
-1.345898 1.031721 14.156460 162 134 112
-1.429819 0.910633 14.467129 89 75 74
-1.387171 0.859472 13.682313 163 136 109
-1.348715 0.888397 13.811598 51 48 39
-1.440688 0.822331 13.907267 106 88 76
-1.451299 0.854116 14.144832 144 121 113
-1.494102 0.836725 14.498854 120 106 103
-1.382017 0.535190 13.525989 111 124 115
-1.382745 0.630651 13.711216 151 148 141
-1.491239 0.587476 13.999176 86 70 71
-1.494784 0.630090 14.235895 55 39 40
-1.462254 0.696633 14.377450 111 92 75
-1.447614 0.634468 14.540010 65 54 58
-1.309216 0.483191 13.544051 157 166 149
-1.404971 0.354874 13.710637 33 42 39
-1.305436 0.211527 13.561247 146 133 117
-1.409593 0.101401 13.778381 111 131 138
-1.493644 0.153481 13.963506 123 107 107
-1.471108 0.262877 14.287265 123 110 102
-1.494449 0.184995 14.310045 86 80 80
-1.494625 0.148640 14.526102 84 65 84
-1.347052 -0.000527 13.691489 135 159 171
-1.354489 0.084688 13.701322 119 139 138
-1.416722 -0.071558 13.900633 135 149 160
-1.477520 -0.074827 14.184264 63 73 83
-1.427020 -0.080002 14.407530 70 83 76
-1.460164 -0.024212 14.552713 67 67 79
-1.387820 -0.169186 13.683194 36 56 65
-1.306833 -0.241858 13.819812 41 59 71
-1.381561 -0.231401 13.991846 94 115 142
-1.457470 -0.127516 14.197277 47 70 78
-1.376981 -0.263461 14.420182 74 93 91
-1.426919 -0.104264 14.520998 26 39 48
-1.318964 -0.368753 13.818903 69 76 86
-1.311075 -0.340210 13.917205 96 95 100
-1.313764 -0.402688 14.109665 81 118 136
-1.344899 -0.346331 14.359955 93 107 118
-1.323550 -0.315259 14.511581 73 85 73
-1.459726 -0.509133 14.598777 33 33 33
-1.493618 -0.945248 14.698623 59 48 46
-1.443319 -1.127524 14.689378 53 48 44
-1.453666 -1.238496 14.708901 94 78 78
-1.302902 -1.335695 14.689880 71 56 53
-1.371220 -1.483849 14.726221 76 67 62
-1.408098 -1.644968 14.788848 54 48 50
-1.455008 -1.751107 14.754329 71 56 59
-1.411898 -2.060211 14.718625 111 105 83
-1.349523 -2.249035 14.682973 46 48 43
-1.443901 -2.247401 14.742693 119 115 88
-1.314707 -2.496020 12.743336 100 100 98
-1.370425 -2.487359 13.236654 64 66 65
-1.316022 -2.431449 13.629022 65 65 67
-1.479129 -2.456461 13.760796 172 176 161
-1.487658 -2.396117 13.932432 124 108 95
-1.477511 -2.352507 14.150558 66 57 62
-1.357004 -2.309289 14.464583 55 51 50
-1.302582 -2.686819 12.040265 135 105 107
-1.316797 -2.683925 12.160916 144 126 142
-1.318025 -2.615585 12.347364 145 137 150
-1.304129 -2.547806 12.596996 122 128 124
-1.388533 -2.571926 12.875956 38 50 64
-1.400129 -2.575168 12.923037 35 39 50
-1.372206 -2.509038 13.297985 37 42 64
-1.384813 -2.582890 13.392150 74 63 71
-1.486810 -2.548659 13.521596 82 73 92
-1.490576 -2.580401 13.747937 61 52 69
-1.305445 -2.865822 11.537482 54 54 92
-1.381227 -2.875218 11.825609 56 59 64
-1.321813 -2.831355 11.903570 104 105 107
-1.322339 -2.708256 12.180349 87 69 83
-1.421194 -2.879340 12.401869 24 25 55
-1.446917 -2.751191 12.605400 31 34 53
-1.433467 -2.727754 13.028963 50 46 73
-1.480800 -2.817305 13.255211 40 56 79
-1.490057 -2.834920 13.770391 66 68 83
-1.317832 -3.035281 11.203711 40 51 81
-1.321185 -3.051746 11.439867 54 53 95
-1.310818 -3.067225 11.633608 72 70 110
-1.351958 -2.917936 11.759368 75 94 101
-1.339228 -3.062600 11.924289 76 86 98
-1.339732 -3.068728 12.136772 63 61 108
-1.366149 -3.058187 12.389270 16 27 49
-1.445837 -2.967435 12.536646 84 102 106
-1.438184 -3.000032 12.845682 24 29 48
-1.431926 -2.971738 12.993008 28 42 91
-1.453047 -2.904689 13.716966 48 54 102
-1.301373 -3.152638 11.224952 39 49 76
-1.301117 -3.136876 11.447012 63 64 112
-1.343411 -3.105858 12.203003 37 52 95
-1.691983 1.979778 14.276882 105 104 84
-1.534523 1.979311 14.310863 90 94 69
-1.690596 2.085827 14.759760 145 149 132
-1.640134 1.837836 14.270355 141 135 101
-1.594055 1.793256 14.333908 152 146 114
-1.624467 1.605380 14.350323 78 65 56
-1.610230 1.330438 14.402679 132 113 109
-1.502016 1.153628 14.430383 112 84 80
-1.684681 1.151526 14.646110 129 148 146
-1.521819 0.941726 14.431184 93 65 62
-1.681522 0.933986 14.753478 139 153 154
-1.674430 0.757660 14.483633 96 62 61
-1.642471 0.722489 14.505397 95 64 62
-1.597156 0.892825 14.845950 132 151 149
-1.523613 0.549792 13.822672 138 124 98
-1.542450 0.510765 13.900656 103 78 74
-1.527154 0.584853 14.117222 80 73 55
-1.679488 0.666598 14.495154 119 100 93
-1.643657 0.526051 14.520017 80 63 69
-1.662777 0.629135 14.788575 139 157 157
-1.689953 0.575898 14.952821 97 67 67
-1.508618 0.308422 13.905286 139 132 126
-1.521688 0.312333 14.249900 122 111 109
-1.538479 0.379272 14.428973 92 81 87
-1.655413 0.355777 14.534495 78 60 60
-1.526460 0.224490 13.963606 80 79 84
-1.510588 0.191498 14.154155 97 95 96
-1.515443 0.123649 14.357988 109 96 88
-1.632293 0.205890 14.539794 94 72 75
-1.648930 0.210244 14.892415 144 161 168
-1.695662 0.157477 14.993888 126 105 104
-1.523554 0.096216 14.105226 57 59 72
-1.510847 0.050104 14.354807 73 60 54
-1.584645 0.089677 14.534952 50 38 38
-1.595152 -0.176313 14.571981 51 39 39
-1.645035 -0.280289 14.733468 135 150 153
-1.633520 -0.142046 14.922829 141 154 160
-1.644470 -0.352481 14.599483 113 101 105
-1.635926 -0.699625 14.679557 95 84 100
-1.588802 -0.694406 14.868156 141 162 167
-1.610283 -0.501129 14.921132 112 137 144
-1.660366 -0.644807 15.112114 106 98 137
-1.598485 -0.728233 14.659349 70 63 71
-1.611034 -0.835638 14.748166 98 96 110
-1.544199 -0.730462 15.011171 148 168 175
-1.604649 -0.854721 15.151108 120 98 110
-1.516250 -1.029542 14.672366 60 52 50
-1.632022 -0.956211 14.703150 93 84 101
-1.602404 -1.001127 15.030544 126 141 144
-1.657206 -1.006247 15.129181 112 106 140
-1.611725 -1.148048 14.691411 127 111 111
-1.551579 -1.279439 14.721225 76 57 53
-1.611467 -1.162525 14.905979 145 166 167
-1.650459 -1.142462 15.104186 111 91 100
-1.596721 -1.385542 14.848543 129 154 161
-1.586650 -1.481534 14.995288 95 119 123
-1.623933 -1.459454 15.209177 115 118 171
-1.599871 -1.562930 14.601143 76 56 57
-1.544001 -1.691380 14.740267 72 68 67
-1.620344 -1.502926 14.990006 133 161 162
-1.640357 -1.681289 15.147188 84 84 72
-1.564131 -1.728247 14.673003 125 120 101
-1.622690 -1.881394 14.732915 115 113 98
-1.680676 -1.784315 15.127548 98 115 122
-1.579820 -1.988909 14.763407 87 96 75
-1.604738 -1.948200 15.067121 101 124 130
-1.632100 -1.955925 15.185702 93 112 108
-1.575764 -2.197496 14.811499 63 75 73
-1.585693 -2.151872 14.942699 107 137 148
-1.678044 -2.144637 15.150274 98 121 135
-1.510495 -2.462270 13.836804 65 68 61
-1.545519 -2.495441 13.969823 114 116 94
-1.596686 -2.437929 14.145981 71 62 79
-1.556677 -2.439222 14.331011 124 97 106
-1.581025 -2.416023 14.512083 75 65 89
-1.663823 -2.475831 14.779688 91 94 109
-1.600439 -2.439520 15.038936 88 74 100
-1.671528 -2.352533 15.194873 108 104 105
-1.503897 -2.568507 13.179921 84 78 88
-1.534263 -2.690497 13.401743 44 40 65
-1.535114 -2.606662 13.629953 33 42 73
-1.510954 -2.609849 13.738855 30 36 60
-1.562395 -2.531293 13.975003 120 127 94
-1.563305 -2.571036 14.381538 45 45 83
-1.634720 -2.521131 14.591455 151 145 145
-1.663437 -2.666617 14.710608 159 149 148
-1.671434 -2.606784 15.017805 45 56 101
-1.650282 -2.620469 15.145444 70 70 108
-1.611209 -2.770134 10.161466 64 134 203
-1.514273 -2.747692 13.285935 111 116 112
-1.535018 -2.832828 13.394232 39 43 88
-1.514015 -2.733822 13.622943 44 43 77
-1.548665 -2.761869 13.788300 70 90 97
-1.558706 -2.806639 13.953643 23 28 50
-1.570998 -2.808381 14.120872 69 85 111
-1.573226 -2.804621 14.326814 12 34 73
-1.602520 -2.706235 14.576406 31 51 86
-1.633916 -2.750670 15.388069 131 207 255
-1.701905 2.109793 14.708516 210 214 199
-1.718188 1.963972 14.289650 167 163 128
-1.758044 2.064643 14.396454 202 207 185
-1.722357 1.976586 14.533774 115 128 121
-1.799885 2.039090 14.788371 83 102 83
-1.782272 1.866631 14.333443 119 118 87
-1.727931 1.715245 14.632423 140 150 149
-1.859626 1.769885 14.736244 98 100 76
-1.708996 1.519653 14.352021 121 105 105
-1.716511 1.512921 14.659350 138 153 146
-1.720641 1.667945 14.708628 141 149 151
-1.783447 1.559225 14.933322 216 204 180
-1.703136 1.495497 14.389143 96 77 83
-1.748718 1.333135 14.523333 120 130 129
-1.780422 1.397356 14.814979 132 112 113
-1.780795 1.139613 14.491555 122 143 138
-1.728401 1.101367 14.632330 129 149 148
-1.713390 1.139233 14.720826 129 146 140
-1.706335 0.998473 14.452752 134 114 105
-1.722257 1.019569 14.915732 117 102 99
-1.761365 0.700857 14.929443 107 98 99
-1.716583 0.588522 14.995735 102 99 110
-1.702095 0.303653 14.983441 110 98 98
-1.769319 -0.676597 14.920036 130 113 119
-1.778410 -2.588830 10.262344 143 162 179
-2.095453 -0.549093 14.473254 137 117 129
-2.222236 -0.485765 14.297526 133 119 134
-2.254992 -2.173722 9.775803 130 119 136
-2.389941 0.580142 14.028538 124 98 97
-2.360392 -2.883650 15.182419 126 204 253
-2.555736 8.958375 27.566298 136 123 107
-3.069986 -1.283195 13.182718 110 98 110
-2.968471 -1.754035 9.832785 24 30 42
-3.609670 -1.878317 8.328670 40 54 103
-4.542017 -0.396151 9.706188 44 49 52
-4.760641 -1.408355 7.784083 120 113 131
-5.281553 -0.905298 7.896082 83 82 78
-5.462607 -1.270642 6.986725 56 137 216
-5.642749 0.312656 8.371372 125 127 106
-5.504070 -0.750374 8.299973 61 72 68
-5.701539 -1.186302 6.823510 46 58 106
-6.092797 0.337958 7.974431 34 33 38
-5.902250 -0.951811 6.893368 127 117 126
-6.210962 -1.151552 7.814793 15 30 69
-6.493639 -0.577990 7.512669 56 56 46
-6.513688 -0.546787 7.554009 88 85 70
-6.788348 0.743700 7.540378 117 98 92
-6.716481 0.371989 7.088887 215 231 218
-6.784092 0.212358 7.075127 37 44 50
-7.158960 -0.680917 5.014984 183 192 191
-7.685817 0.218061 5.807785 140 144 129
-8.316585 0.341504 5.530181 150 127 119
-8.563941 0.215387 5.210875 84 69 72
-8.555602 0.012943 4.960731 143 162 166
-8.563584 -0.105979 4.820835 96 86 74
-8.760425 0.259610 4.515917 110 138 139
-8.859893 0.124199 4.767398 130 136 132
-8.845447 -0.057852 4.337073 96 99 80
-8.924157 0.221917 4.455702 119 105 104
-9.029053 0.229357 4.708098 106 110 109
-9.273705 0.373499 4.091299 74 69 66
-9.263381 0.302351 4.442074 133 112 109
-9.699655 0.343415 3.950350 231 233 219
-9.756947 0.278908 3.825328 90 84 98
-10.059518 0.332467 3.528250 76 77 79
-10.495599 0.346120 3.242498 94 108 155
-11.048936 0.469844 2.585640 42 48 48
-11.044938 0.472141 2.812616 135 166 161
-11.137277 0.529515 2.759343 70 83 89
-11.141247 0.397407 2.544500 72 66 70
-11.451779 0.103158 2.361444 84 94 104
-11.598757 0.561883 2.220411 149 136 154
-12.348955 0.911335 1.346667 108 127 141
-12.629146 1.029314 0.948266 141 174 181
-12.601685 0.112725 1.227612 190 202 214
-12.915913 0.811599 1.042655 160 159 164
-13.139528 0.717466 1.355721 54 71 91
-14.475147 1.420788 1.329873 158 163 166
183.857482 -62.765877 167.155374 64 69 98
76.623882 10.272045 82.641393 117 98 94
62.137566 -26.646594 61.078439 109 94 135
57.775724 3.625818 24.319582 200 210 220
57.706179 -22.687474 49.153648 108 95 123
57.632070 13.853318 25.865810 210 222 236
56.571735 5.224647 24.071396 201 218 226
56.322949 6.208761 24.270434 180 191 197
55.694118 6.126326 24.096509 180 187 203
53.159017 12.412246 24.102786 207 218 240
53.009087 9.400455 23.714110 146 149 158
52.697410 5.145660 24.701018 138 154 188
52.163250 2.721618 23.610282 121 118 127
51.199983 5.860030 23.750783 198 208 233
50.556157 2.844703 24.449493 111 122 140
50.273975 7.036547 27.813022 70 138 223
49.173866 14.164260 25.954175 97 114 158
49.132366 7.976925 33.890943 117 203 216
47.084260 -19.595237 47.090239 143 163 174
45.900467 8.897389 28.116918 107 197 234
45.011925 3.665048 24.953535 77 95 161
44.266217 16.133349 27.502799 56 81 135
41.380548 11.286463 32.695978 140 147 163
39.521076 11.689483 22.675224 97 124 177
38.940622 12.036869 28.979168 148 161 170
38.248302 4.189608 28.414894 162 202 228
37.927701 10.654751 27.892321 109 148 177
37.454072 4.601240 23.786443 59 157 230
36.775980 2.150011 26.848728 59 46 126
36.624249 15.151320 26.463450 67 87 112
35.960438 10.747383 21.481035 104 122 188
