ply
format ascii 1.0
element vertex 1233
property float x
property float y
property float z
property uchar diffuse_red
property uchar diffuse_green
property uchar diffuse_blue
end_header
-0.475149 -1.393636 3.977613 0 9 66
-0.477333 -1.465940 3.980569 0 5 74
-0.491767 -1.205623 4.064110 115 155 216
-0.486245 -1.323213 3.998142 187 190 209
-0.497816 -1.203107 4.066261 10 44 116
-0.408602 -1.196787 4.056064 3 36 115
-0.490432 -1.332806 3.997708 188 195 214
-0.795153 0.150790 6.466329 77 79 68
-0.491094 -1.343732 3.995652 181 191 218
-0.499546 -1.353672 3.997652 173 185 225
-0.509681 -1.380036 4.000305 112 138 187
-0.512563 -1.355231 4.004570 175 187 211
-0.512347 -1.467445 4.000341 0 6 71
-0.512347 -1.467445 4.000341 0 6 71
-0.516431 -1.463255 4.002168 154 170 221
-0.519105 -1.386113 4.002618 0 1 65
-0.521585 -1.347368 4.011578 181 185 210
-0.521585 -1.347368 4.011578 181 185 210
-0.522758 -1.336998 4.015133 189 198 213
-0.526771 -1.328205 4.019804 184 191 209
-1.404722 1.241114 10.275519 50 49 44
-0.909313 -0.816854 6.432471 32 32 30
-0.971235 -0.864837 6.883508 70 71 65
-0.971235 -0.864837 6.883508 70 71 65
-0.930530 -1.021163 6.355847 119 119 111
-0.930530 -1.021163 6.355847 119 119 111
-0.428498 -0.277809 1.706029 62 62 54
-0.967377 -0.920957 6.337116 38 38 30
-0.644405 0.747268 4.150191 235 212 0
-0.937594 -0.939856 6.059546 90 91 85
-0.739997 -0.503349 4.747103 120 119 114
-0.715532 0.854063 4.676237 234 213 0
-0.681054 0.793027 4.304047 237 216 3
-0.517484 -0.502089 1.787977 96 97 92
-0.806629 0.906668 4.493663 225 209 2
-0.761964 -1.241640 4.224352 118 151 202
-0.770116 -1.248504 4.222602 128 160 209
-0.848759 0.596605 4.434581 215 201 14
-0.734391 -1.331920 4.234935 23 41 113
-0.910918 0.616839 4.391214 227 234 193
-0.921558 0.609054 4.408640 164 212 152
-0.884565 0.856006 4.636464 235 214 9
-0.884565 0.856006 4.636464 235 214 9
-1.002679 1.000736 4.499196 182 194 174
-1.011815 0.988712 4.516931 244 251 218
-0.972165 0.714969 4.409094 199 191 84
-1.031809 0.589204 4.541926 0 2 0
-1.049002 0.917176 4.594165 214 209 143
-0.986631 0.742970 4.309062 71 151 92
-0.987302 0.751586 4.296997 51 165 95
-1.053761 0.587113 4.544057 3 3 1
-1.053761 0.587113 4.544057 3 3 1
-1.071518 0.589210 4.548046 206 209 200
-0.980281 -1.516430 4.608839 29 36 82
-0.935829 -1.493562 4.406740 30 43 113
-0.886398 -2.040589 5.972048 204 203 199
-1.042790 0.708285 4.360811 10 65 26
-1.053838 0.917158 4.390407 29 85 46
0.011337 -0.591319 1.984838 24 24 24
-1.043784 0.743312 4.343028 163 255 207
-1.201148 0.908807 4.965649 6 80 43
-1.084795 0.664209 4.418681 6 71 15
-1.084795 0.664209 4.418681 6 71 15
-1.075080 -1.491973 4.316759 42 50 123
-1.120728 0.817788 4.391578 0 48 5
-1.120728 0.817788 4.391578 0 48 5
-1.156639 0.624517 4.513163 19 159 54
-1.260993 0.836064 4.985289 163 255 206
-1.129982 0.736661 4.402953 163 255 206
-1.288554 0.777474 4.892310 249 240 39
-1.212448 -1.303405 4.495570 9 31 88
-1.210472 0.683904 4.479753 249 240 37
-0.895079 -1.382939 4.206458 38 43 101
-1.225992 -1.510604 4.403739 221 228 234
-0.175762 -0.636070 1.745749 206 207 211
-1.302553 0.722881 4.518440 187 255 205
-1.345234 -1.328722 4.570782 5 24 82
-1.349479 0.677348 4.571690 238 253 234
-1.349479 0.677348 4.571690 238 253 234
-1.371024 0.659207 4.597755 111 223 151
-1.362452 0.719280 4.562821 244 248 247
-1.362452 0.719280 4.562821 244 248 247
-1.360727 0.742868 4.550349 235 247 233
-1.360727 0.742868 4.550349 235 247 233
-1.372916 0.732480 4.563729 125 165 139
-1.385214 0.667080 4.598381 242 251 234
-1.385214 0.667080 4.598381 242 251 234
-1.374933 0.801162 4.562212 243 245 242
-1.374933 0.801162 4.562212 243 245 242
-1.380736 0.808893 4.566912 59 61 60
-1.386693 0.738316 4.569372 242 250 237
-1.402629 0.723454 4.586709 243 248 244
-1.402629 0.723454 4.586709 243 248 244
-1.435970 0.609106 4.692534 62 199 111
-1.410381 0.857801 4.606872 245 245 243
-1.402481 0.739667 4.580555 96 164 123
-1.408637 0.718298 4.588253 53 60 53
-1.428853 0.632624 4.654447 28 168 69
-1.448900 0.627083 4.672050 0 5 0
-1.467525 0.658872 4.655088 0 36 0
-1.466541 0.676801 4.648252 112 207 143
-1.468305 0.814655 4.629166 19 78 32
-1.473803 0.682181 4.644739 5 49 13
-1.470453 0.724611 4.628880 107 176 131
-1.485161 0.827662 4.645973 121 199 151
-1.482243 0.740982 4.633763 143 226 180
-1.486547 0.720573 4.641969 96 174 122
-1.484209 0.749490 4.632963 16 51 21
-1.484209 0.749490 4.632963 16 51 21
-1.492843 0.687510 4.656739 0 61 0
-1.500895 0.798931 4.649842 7 44 11
-1.500333 0.788554 4.645228 98 166 117
-1.500963 0.774697 4.642014 0 67 3
-1.510503 0.810309 4.656311 4 60 13
-1.527342 0.663710 4.690404 27 159 75
-1.731135 -1.413206 5.170531 178 171 152
-1.540449 0.662835 4.697996 34 151 73
-1.544763 0.655108 4.706874 0 9 0
-1.538206 0.727373 4.671589 0 56 0
-1.538206 0.727373 4.671589 0 56 0
-1.538142 0.744956 4.668670 0 64 5
-1.538142 0.744956 4.668670 0 64 5
-1.541346 0.786868 4.674091 0 63 1
-1.541346 0.786868 4.674091 0 63 1
-1.543958 0.708402 4.680381 0 69 9
-1.550862 0.702712 4.688595 129 230 172
-1.552490 0.737769 4.682709 56 188 105
-1.552490 0.737769 4.682709 56 188 105
-1.558363 0.718142 4.688873 0 74 10
-1.561558 0.770098 4.685921 71 180 115
-1.566422 0.762763 4.685219 0 47 0
-1.575129 0.803066 4.704014 156 247 186
-1.575129 0.803066 4.704014 156 247 186
-1.624964 -1.471467 4.828280 155 160 156
-1.618081 0.607796 4.794600 95 222 143
-1.714419 -1.392618 5.028679 44 37 21
-1.564293 -1.563416 4.573472 206 203 196
-1.719633 -1.402244 5.018741 183 177 163
-1.726156 -1.411731 5.006554 197 191 175
-1.644758 0.709984 4.747475 21 163 79
-1.647136 0.756437 4.744176 37 160 79
-1.647136 0.756437 4.744176 37 160 79
-1.652031 0.762553 4.744828 0 22 0
-1.654534 0.707540 4.749137 0 42 0
-1.655844 0.725516 4.750528 0 10 0
-1.656970 0.743747 4.750435 80 170 108
-1.737794 -1.406406 4.982086 49 42 24
-1.744859 -1.402838 4.976646 193 188 169
-1.749540 -1.397567 4.967230 59 51 38
-1.748583 -1.439561 4.942088 50 41 26
-1.701294 0.682416 4.791037 3 7 6
-1.714721 0.670843 4.800150 220 222 217
-1.718715 0.686867 4.800524 217 227 216
-1.755131 0.600657 4.875945 1 124 18
-1.764706 0.595280 4.897555 213 218 64
-1.730313 0.749016 4.797315 2 17 0
-1.738423 0.687355 4.814422 164 224 170
-1.769609 -1.472004 4.893733 100 97 82
-1.769609 -1.472004 4.893733 100 97 82
-2.004282 0.771611 5.474698 188 233 106
-0.530071 -0.409462 1.422222 36 33 28
-1.868883 -1.799124 4.705945 59 54 50
-1.880344 -1.522595 4.730833 68 65 60
-1.909702 -1.174629 4.729084 76 72 69
-2.057470 -0.982655 5.028627 70 67 62
-1.909384 -1.810186 4.656453 59 52 42
-1.923544 -1.731406 4.633832 62 57 51
-1.954321 -0.921193 4.707657 37 36 32
-1.928490 -1.704333 4.634254 55 52 47
-1.924698 -1.786745 4.621578 43 39 36
-1.941533 -1.505649 4.646203 45 41 38
-1.944110 -1.600815 4.632129 172 168 157
-1.944110 -1.600815 4.632129 172 168 157
-1.941503 -1.627372 4.628109 99 96 91
-1.947114 -1.608068 4.630159 43 38 34
-1.966103 -1.282315 4.635152 53 49 46
-2.001647 -0.402292 4.719848 148 147 142
-2.001647 -0.402292 4.719848 148 147 142
-1.224085 -0.779016 2.868818 49 45 42
-1.977271 -1.053485 4.648927 42 41 37
-1.982829 -1.089836 4.631362 50 47 42
-2.025883 -0.122694 4.720774 37 34 25
-2.034295 0.204035 4.738711 66 65 60
-2.037306 0.088647 4.730390 88 85 80
-1.998358 -1.033580 4.638047 150 147 138
-1.998358 -1.033580 4.638047 150 147 138
-2.045451 0.303413 4.747573 73 70 61
-1.994915 -1.063635 4.627409 37 34 29
-2.055125 0.461143 4.753584 29 29 21
-2.054079 0.383664 4.747633 44 44 36
-2.003852 -0.961154 4.632110 162 156 142
-2.009707 -0.840347 4.640633 48 44 41
-2.043950 -0.080459 4.711793 35 34 29
-2.056977 0.448904 4.741446 38 38 30
-2.057392 0.066150 4.735528 127 124 117
-2.024626 -0.612308 4.652735 68 67 63
-2.022055 -0.734783 4.630278 101 100 95
-2.022055 -0.734783 4.630278 101 100 95
-2.066884 0.162320 4.732034 124 121 112
-2.026409 -0.643013 4.638646 49 46 37
-2.000549 0.192600 4.574458 125 122 117
-2.000549 0.192600 4.574458 125 122 117
-2.063839 0.187580 4.720573 141 141 133
-2.081054 0.319843 4.735324 167 167 157
-2.038143 -0.528224 4.636355 42 39 34
-2.048120 -0.668917 4.647307 75 74 70
-2.049576 -0.513183 4.646880 105 102 97
-2.052049 -0.487077 4.646670 96 91 85
-1.784190 0.384065 4.033620 137 137 129
-5.645155 -1.666536 12.823938 65 62 57
-2.053861 -0.497451 4.641361 43 40 35
-2.100852 0.566261 4.744820 20 17 10
-2.058452 -0.264011 4.650583 131 128 119
-2.058452 -0.264011 4.650583 131 128 119
-2.114878 0.980222 4.765726 171 169 157
-2.113682 0.644126 4.739933 98 98 90
-2.082552 -0.152600 4.662060 47 46 41
-2.086644 -0.079807 4.657856 50 47 40
-2.117261 0.380126 4.690225 50 49 44
-2.119735 0.159284 4.661514 116 115 110
-2.132804 0.482081 4.666288 71 70 65
-2.132804 0.482081 4.666288 71 70 65
-2.142865 0.539978 4.658840 81 80 75
-2.146369 0.492553 4.654670 113 110 105
-2.206557 1.019037 4.671008 134 118 85
-2.200574 0.944206 4.659971 201 189 163
0.423355 -1.299168 2.778523 215 214 212
-0.121651 -1.386146 3.869073 32 32 32
1.917449 0.146733 5.674941 81 81 71
1.830698 -0.046745 5.540091 39 40 35
1.320421 2.131416 5.746338 10 9 5
0.896190 -0.253110 4.023486 128 134 146
0.891388 2.259977 6.390351 85 86 81
1.232628 0.149157 5.868143 119 126 136
4.308156 1.301603 21.253885 31 33 32
1.148298 -0.078281 5.644274 137 135 122
1.171665 0.320688 5.762413 209 210 204
1.139475 -0.329117 5.651098 9 8 3
1.136600 -0.306471 5.650241 31 29 17
1.136600 -0.306471 5.650241 31 29 17
1.134761 -0.430937 5.638332 187 185 172
1.135119 -0.394317 5.654461 194 198 183
1.135119 -0.394317 5.654461 194 198 183
1.132178 -0.358668 5.652171 23 24 16
1.127273 -0.430570 5.659635 11 8 0
1.127273 -0.430570 5.659635 11 8 0
1.123766 -0.328546 5.661779 14 13 8
1.121913 -0.413871 5.662679 27 24 17
1.117520 -0.401627 5.659753 194 192 179
1.115966 -0.390070 5.660684 191 191 181
1.117429 -0.426002 5.664632 199 197 185
1.113539 -0.329027 5.661696 39 36 29
1.110947 -0.308587 5.662076 44 44 36
1.110947 -0.308587 5.662076 44 44 36
1.107836 -0.367020 5.656440 196 194 182
1.104716 0.426079 5.698278 94 97 104
1.081202 -0.602663 5.708370 156 153 136
1.037839 -0.465601 5.700755 174 172 160
1.020742 -0.379095 5.701460 198 196 184
0.983385 -0.494053 5.718285 174 181 174
0.983385 -0.494053 5.718285 174 181 174
0.953997 -0.246639 5.724070 186 189 180
0.960361 2.095047 5.888624 7 6 2
0.906002 0.198556 5.738646 145 139 123
0.904207 0.186564 5.744542 213 210 195
0.904207 0.186564 5.744542 213 210 195
0.509569 -0.936811 3.510609 253 251 252
0.027515 -0.908192 2.004465 203 200 195
0.077031 -1.045623 2.836586 149 148 144
0.756813 0.382940 5.822121 151 150 130
0.454709 -1.504115 3.242939 235 231 230
0.652983 0.381058 5.872081 195 193 178
0.392036 -1.404403 4.099042 18 22 59
0.504632 -0.466175 5.315410 173 169 157
0.323428 -1.201575 3.159902 56 61 127
0.543249 2.038806 6.057321 44 43 39
0.324070 -1.211870 3.673151 55 68 121
0.472585 -0.544289 5.935026 118 130 142
0.286578 -1.604867 3.676555 180 175 169
0.463985 -0.476053 5.947327 64 65 57
0.278403 -1.187979 3.733351 141 165 177
0.440605 0.150073 5.942574 152 133 93
0.440605 0.150073 5.942574 152 133 93
0.435162 0.015635 5.942301 203 203 191
0.269543 -1.628729 3.691515 168 164 155
0.263447 -1.614852 3.700784 163 158 152
0.402552 0.322869 5.960900 196 195 175
0.398197 -0.085683 5.932204 83 91 102
0.246115 -1.110485 3.762100 0 15 77
0.240598 -1.358105 3.743873 192 195 188
0.239382 -1.163243 3.770229 82 133 196
0.266966 -1.365243 3.745710 179 180 174
0.224782 -1.352328 3.755792 176 179 172
0.221193 -0.975030 3.792929 247 248 242
0.215159 -1.575656 3.752172 190 192 187
0.338273 -0.553538 5.997167 147 117 79
0.338273 -0.553538 5.997167 147 117 79
0.211951 -1.378006 3.759254 6 12 74
0.337619 -0.583571 5.998032 163 131 82
0.212504 -1.232130 3.773746 121 155 165
0.320582 -0.562054 6.001927 178 162 137
0.301602 -0.321038 6.014715 126 121 102
0.277281 -0.371406 6.007131 110 111 97
0.274246 -0.591495 5.996851 16 19 12
0.274246 -0.591495 5.996851 16 19 12
0.266600 -0.600974 5.998475 216 216 208
0.264401 0.230698 6.015387 118 98 63
0.264401 0.230698 6.015387 118 98 63
0.260176 -0.431326 5.992684 39 40 32
0.257643 -0.573977 5.998049 42 42 34
0.252998 -0.417711 5.998360 35 36 28
0.252998 -0.417711 5.998360 35 36 28
0.251567 -0.071241 6.010031 128 132 135
0.156432 -1.304574 3.795503 35 58 110
-0.402569 -0.334620 6.978494 162 171 180
0.232577 -0.059868 6.032314 133 127 111
0.230943 -0.564961 6.043443 171 162 145
0.222132 -0.577838 6.050543 114 84 48
0.218065 -0.064705 5.990109 195 189 175
0.211901 0.047613 6.006108 231 232 218
0.211901 0.047613 6.006108 231 232 218
0.202192 0.060030 6.002076 45 42 33
0.128013 -1.145068 3.787584 199 240 255
0.200295 -0.298301 6.048950 191 184 168
0.125377 -1.191023 3.788351 48 114 208
0.117202 -1.126487 3.789524 121 166 195
0.117202 -1.126487 3.789524 121 166 195
0.184457 -0.410180 6.052753 191 170 139
0.181264 0.205885 6.029751 197 203 191
0.182272 -0.391356 6.061287 181 173 154
0.178608 -0.506587 6.060269 31 27 15
0.178334 -0.160388 6.050912 133 106 61
0.178334 -0.160388 6.050912 133 106 61
0.109750 -1.302711 3.786361 69 87 161
0.164826 0.024336 6.054672 92 73 43
0.164469 -0.061897 6.054018 54 112 97
0.102480 -1.124437 3.798271 117 164 194
0.102480 -1.124437 3.798271 117 164 194
0.155655 -0.144834 6.058128 194 182 160
0.153446 0.156889 6.059371 110 83 53
0.095389 -1.121437 3.793151 209 234 241
0.095389 -1.121437 3.793151 209 234 241
0.142420 -0.004106 6.059459 199 188 168
0.136673 0.228386 6.065300 192 205 188
0.126830 -0.385387 6.047530 44 44 36
0.077378 -1.122335 3.794733 207 236 252
0.114326 -0.248167 6.049053 218 224 212
0.114326 -0.248167 6.049053 218 224 212
0.112844 0.003534 6.067782 41 39 26
0.101115 -0.106642 6.045254 31 32 24
0.098633 -0.525292 6.102506 172 170 157
0.082670 -0.374134 6.101425 187 181 169
0.083750 -0.617938 6.100114 179 171 160
0.078960 -0.238907 6.094208 174 170 158
0.072717 -0.587040 6.107442 37 34 27
0.045176 -1.208411 3.795675 7 61 161
0.044412 -1.296291 3.791132 198 224 255
0.070859 -0.561915 6.104698 40 50 39
0.040710 -1.245550 3.791649 200 228 255
0.065610 -0.510391 6.111560 181 175 161
0.033889 -1.147091 3.801704 198 233 255
0.033889 -1.147091 3.801704 198 233 255
0.053368 -0.318585 6.103091 195 184 162
0.053396 -0.413503 6.109255 25 27 14
0.052513 -0.613980 6.100831 39 39 31
0.032926 -1.129926 3.807076 202 230 251
0.032926 -1.129926 3.807076 202 230 251
0.032625 -1.295721 3.791525 203 223 255
0.050913 -0.292663 6.100535 185 171 145
0.045570 -0.311840 5.284222 188 185 168
0.029420 -1.249415 3.793985 206 222 245
0.025677 -1.285810 3.792403 10 22 62
0.039418 -0.548108 6.089349 204 206 195
0.024327 -1.146478 3.806543 96 154 191
0.024327 -1.146478 3.806543 96 154 191
0.038239 -0.261783 6.109420 26 32 20
0.037085 -0.152153 6.109337 195 182 163
0.034670 0.003125 6.109423 151 135 102
0.034670 0.003125 6.109423 151 135 102
0.034442 -0.102471 6.109367 193 185 172
-0.022260 -0.487200 1.140059 152 153 157
0.024665 -0.113760 6.111857 43 49 37
0.024717 -0.177232 6.110469 33 30 15
0.022256 -0.005861 6.109906 192 180 154
0.020877 0.130038 6.109945 159 135 99
0.010987 -1.286532 3.794702 2 4 87
0.010987 -1.286532 3.794702 2 4 87
0.009695 -1.270027 3.798948 5 15 102
0.009695 -1.270027 3.798948 5 15 102
0.012304 -0.413999 6.098252 242 244 231
0.012304 -0.413999 6.098252 242 244 231
-0.005568 0.062758 11.482950 21 32 16
0.009380 -0.426194 6.097579 27 28 20
0.009380 -0.426194 6.097579 27 28 20
-0.003971 -0.608332 6.135364 164 158 146
-0.009767 -0.151296 6.100287 229 232 223
-0.010077 0.237795 6.124800 186 189 172
-0.008066 -1.128988 3.821206 195 224 240
0.069548 -1.042170 2.560054 40 45 109
-0.016702 -0.161714 6.107793 44 45 37
-0.010589 -1.299328 3.796853 201 226 255
-0.010589 -1.299328 3.796853 201 226 255
-0.010820 -1.179708 3.815290 0 47 138
-0.020995 0.140502 6.123761 44 44 34
-0.012805 -1.265810 3.799767 198 216 238
-0.012805 -1.265810 3.799767 198 216 238
-0.013660 -1.250484 3.802150 190 217 246
-0.013660 -1.250484 3.802150 190 217 246
-0.265506 -1.225885 2.849414 8 12 75
0.022462 0.121121 11.615928 46 48 37
-0.033918 0.144332 6.113339 248 250 237
-0.022031 -1.154778 3.816863 194 222 236
-0.040228 -0.283645 6.147795 173 171 156
-0.024263 -1.178912 3.812438 0 54 144
0.012428 0.208003 6.191029 236 238 227
-0.028095 -1.299835 3.800073 200 220 255
-0.028095 -1.299835 3.800073 200 220 255
-0.034396 -1.192018 3.807635 46 118 202
-0.062288 -1.257282 3.788290 1 13 111
-0.061740 -0.170943 6.152064 103 84 54
-0.061740 -0.170943 6.152064 103 84 54
-0.038568 -1.291914 3.802903 211 215 227
-0.038568 -1.291914 3.802903 211 215 227
-0.068832 -0.576504 6.145269 46 44 32
-0.069571 -0.020576 6.150983 129 108 81
-0.069214 -0.100252 6.154167 137 89 79
-0.069214 -0.100252 6.154167 137 89 79
-0.069373 -0.282975 6.153707 194 181 162
-0.070959 0.018917 6.156736 183 176 158
-0.044219 -1.264908 3.807088 201 217 240
-0.044219 -1.264908 3.807088 201 217 240
-0.075661 -0.041202 6.154975 158 143 112
-0.075661 -0.041202 6.154975 158 143 112
-0.077988 0.031125 6.154033 126 109 79
-0.048244 -1.301128 3.804206 204 222 255
-0.048244 -1.301128 3.804206 204 222 255
-0.082744 -0.571031 6.145928 214 217 208
-0.084683 0.062892 6.159332 139 100 93
-0.084683 0.062892 6.159332 139 100 93
-0.053818 -1.133820 3.837953 191 217 232
-0.053818 -1.133820 3.837953 191 217 232
-0.088278 -0.586410 6.144134 4 3 0
-0.088278 -0.586410 6.144134 4 3 0
-0.090722 -0.561181 6.142926 28 28 20
-0.095790 -0.449670 6.144480 227 229 218
-0.064654 -1.303632 3.807844 200 215 255
-0.064654 -1.303632 3.807844 200 215 255
-0.066836 -1.254911 3.815943 183 204 249
-0.066836 -1.254911 3.815943 183 204 249
-0.066505 -1.269499 3.812613 201 216 255
-0.066505 -1.269499 3.812613 201 216 255
-0.068487 -1.136143 3.844054 177 212 232
-0.117975 -0.409172 6.153840 218 218 206
-0.073720 -1.249390 3.819369 0 13 107
-0.134109 -0.146284 6.156217 40 42 31
-0.086393 -1.429160 3.802269 1 1 71
-0.148426 0.130131 6.159888 244 248 233
-0.152340 0.167288 6.162886 31 31 21
-0.151501 0.153377 6.160203 217 218 202
-0.151501 0.153377 6.160203 217 218 202
-0.071545 -1.271180 3.846057 199 207 230
-0.096251 -1.266795 3.822455 199 207 230
-0.156984 -0.016951 6.165399 223 224 216
-0.106129 -1.254905 3.328882 0 7 80
-0.102503 -1.342622 3.815534 108 161 229
-0.124268 -1.143227 3.866907 176 212 236
-0.197233 -0.190117 6.204720 197 194 177
-0.128651 -1.309581 3.828954 191 209 247
-0.128651 -1.309581 3.828954 191 209 247
-0.128758 -1.370033 3.822195 121 151 221
-0.130963 -1.261319 3.837134 187 205 243
-0.217282 -0.029763 6.227589 194 168 135
-0.215961 -0.586974 6.205803 227 222 202
-0.237480 -1.373264 4.082721 2 7 75
-0.233315 0.146803 6.223845 210 186 158
-0.144227 -1.274999 3.839260 199 216 244
-0.144227 -1.274999 3.839260 199 216 244
-0.143334 -1.308734 3.834114 188 199 227
-0.233494 -0.200418 6.171435 225 219 205
-0.236318 -0.393910 6.209907 76 71 52
-0.249235 -0.409112 6.214118 237 234 215
-0.240515 0.087448 6.217533 123 65 28
-0.242814 0.010093 6.218953 253 184 89
-0.242814 0.010093 6.218953 253 184 89
-0.244253 -0.081262 6.233776 221 125 25
-0.150047 -1.282757 3.840752 198 206 225
-0.245656 -0.591794 6.217557 81 76 57
-0.245656 -0.591794 6.217557 81 76 57
-0.247331 -0.029581 6.246186 220 129 22
-0.247420 -0.415354 6.214098 54 55 39
-0.249753 -0.401260 6.211610 62 61 43
-0.250689 -0.389339 6.216544 229 226 209
-0.260896 -0.410418 6.217300 245 243 228
-0.261261 0.132382 6.177937 220 126 28
-0.266812 -0.396905 6.219295 65 64 44
-0.165373 -1.310992 3.842606 202 209 225
-0.165373 -1.310992 3.842606 202 209 225
-0.270762 -0.020234 6.215275 116 32 0
-0.168527 -1.276343 3.850148 186 205 222
-0.168527 -1.276343 3.850148 186 205 222
-0.279955 -0.052784 6.219782 96 47 15
-0.281136 0.114936 6.217382 97 28 0
-0.281136 0.114936 6.217382 97 28 0
-0.173981 -1.310153 3.844131 30 33 114
-0.289955 -0.032419 6.226502 221 134 65
-0.177931 -1.363439 3.838483 128 158 222
-0.183185 -1.266600 3.858785 179 200 245
-0.183185 -1.266600 3.858785 179 200 245
-0.181988 -1.429707 3.839578 0 4 68
-0.297678 -0.020529 6.225813 91 33 0
-0.300436 -0.651388 6.264510 183 177 155
-0.185392 -1.370182 3.844091 0 2 71
-0.185392 -1.370182 3.844091 0 2 71
-0.302675 0.122953 6.228656 102 41 10
-0.302675 0.122953 6.228656 102 41 10
-0.300890 0.102727 6.224692 93 29 0
-0.186416 -1.356826 3.845741 7 21 92
-0.186416 -1.356826 3.845741 7 21 92
-0.191006 -1.375760 3.844755 129 160 225
-0.311790 0.116430 6.226920 223 135 63
-0.192453 -1.351532 3.847096 120 158 221
-0.320346 -0.470790 6.263336 193 185 164
-0.369184 0.004993 7.097907 198 122 62
-0.200622 -1.306964 3.856749 0 0 24
-0.200622 -1.306964 3.856749 0 0 24
-0.328723 -0.481836 6.271491 87 81 65
-0.203649 -1.279007 3.866501 188 202 237
-0.203649 -1.279007 3.866501 188 202 237
-0.203228 -1.377286 3.850706 120 156 218
-0.204359 -1.352679 3.852747 118 151 218
-0.342810 -0.051748 6.267006 131 99 58
-0.210629 -1.368255 3.857321 3 11 83
-0.210629 -1.368255 3.857321 3 11 83
-0.351771 -0.260152 6.278048 169 166 149
-0.351143 -0.284985 6.274940 151 145 129
-0.216258 -1.316322 3.862478 200 207 217
-0.216258 -1.316322 3.862478 200 207 217
-0.216016 -1.373743 3.853590 132 157 223
-0.354510 -0.225319 6.266286 175 172 157
-0.219272 -1.283258 3.871200 187 200 234
-0.219272 -1.283258 3.871200 187 200 234
-0.153564 -0.342236 3.589712 227 224 209
-0.220067 -1.295705 3.872590 0 0 40
-0.358673 -0.048279 6.275115 202 189 157
-0.361222 -0.029268 6.274783 195 188 170
-0.368091 0.134997 6.291256 200 184 159
-0.225229 -1.365151 3.860842 0 0 60
-0.227919 -1.294867 3.872238 190 197 226
-0.227919 -1.294867 3.872238 190 197 226
-0.374648 -0.429153 6.265296 76 70 54
-0.376199 -0.581189 6.271554 236 233 218
-0.376184 -0.601708 6.272843 215 214 196
-0.233604 -1.308666 3.873597 199 206 234
-0.381832 -0.615399 6.274513 59 58 38
-0.381832 -0.615399 6.274513 59 58 38
-0.386280 -0.151463 6.277237 172 167 148
-0.387673 -0.430206 6.270174 70 67 50
-0.239625 -1.314504 3.873662 1 3 26
-0.239625 -1.314504 3.873662 1 3 26
-0.241145 -1.279020 3.881176 1 1 39
-0.841396 -0.171979 9.855915 223 217 205
-0.395922 -0.604784 6.282208 214 212 197
-0.502555 0.034922 7.749008 175 170 151
-0.405036 -0.421112 6.281014 236 238 217
-0.405036 -0.421112 6.281014 236 238 217
-0.413113 0.099974 6.306223 221 218 203
-0.413065 -0.061287 6.274445 233 230 213
-0.256511 -1.280950 3.889079 3 1 48
-0.255842 -1.316495 3.881700 0 3 32
-0.255842 -1.316495 3.881700 0 3 32
-0.422637 -0.245113 6.281279 243 244 228
-0.422637 -0.245113 6.281279 243 244 228
-0.262429 -1.311481 3.884829 198 204 218
-0.262994 -1.286899 3.889787 195 201 217
-0.444248 -0.049699 6.494696 226 223 206
-0.264914 -1.380407 3.875600 120 160 222
-0.434203 0.104139 6.161836 241 235 221
-0.433909 0.126533 6.276372 239 236 221
-0.268447 -1.299462 3.889744 189 191 204
-0.268447 -1.299462 3.889744 189 191 204
-0.269152 -1.453069 3.876515 79 99 160
-0.445794 -0.651966 6.323008 187 181 159
-0.446212 0.137532 6.290476 91 86 67
-0.451738 -0.662780 6.331352 92 87 68
-0.453594 -0.581127 6.331597 180 173 154
-0.279791 -1.326681 3.893506 183 192 235
-0.279791 -1.326681 3.893506 183 192 235
-0.734316 -0.466402 10.038112 151 146 127
-0.281603 -1.276907 3.901372 188 203 226
-0.281603 -1.276907 3.901372 188 203 226
-0.280471 -1.295486 3.896391 183 187 216
-0.280471 -1.295486 3.896391 183 187 216
-0.471707 1.380071 6.489554 62 63 58
-0.470454 -0.489604 6.329747 122 114 101
-0.294958 -1.290018 3.893959 193 203 238
-0.294958 -1.290018 3.893959 193 203 238
-0.297292 -1.356216 3.896330 0 0 52
-0.297292 -1.356216 3.896330 0 0 52
-0.297615 -1.373551 3.901023 3 0 57
-0.485198 -0.290439 6.329161 193 192 174
-0.485198 -0.290439 6.329161 193 192 174
-0.484931 -0.380893 6.333272 122 116 104
-0.303917 -1.298407 3.909390 0 0 41
-0.303917 -1.298407 3.909390 0 0 41
-0.310303 -1.280533 3.915246 176 190 216
-0.310303 -1.280533 3.915246 176 190 216
-0.503413 -0.082018 6.330547 192 178 152
-0.318311 -1.330658 3.905056 0 5 63
-0.322376 -1.376623 3.903325 116 147 204
-0.322376 -1.376623 3.903325 116 147 204
-0.322161 -1.390523 3.903578 120 151 215
0.492007 -0.408185 8.795470 78 72 56
-0.528626 -0.434405 6.332696 236 235 217
-0.538371 -0.614192 6.340036 85 84 66
-0.538371 -0.614192 6.340036 85 84 66
-0.546005 -0.244125 6.333931 68 63 44
-0.546437 -0.256026 6.332969 229 228 207
-0.342661 -1.333540 3.920836 184 196 238
-0.342661 -1.333540 3.920836 184 196 238
-0.558815 -0.251956 6.339190 58 55 38
-0.558815 -0.251956 6.339190 58 55 38
-0.558815 -0.251956 6.339190 58 55 38
-0.563119 -0.065114 6.336527 222 219 200
-0.569982 -0.259569 6.344471 234 231 214
-0.353429 -1.318599 3.928219 188 197 212
-0.576364 -0.248975 6.345484 66 63 44
-0.360077 -1.389553 3.921487 0 4 68
-0.360077 -1.389553 3.921487 0 4 68
-0.362485 -1.376273 3.925083 0 4 62
-0.362485 -1.376273 3.925083 0 4 62
-0.590972 0.123374 6.347287 94 89 69
-0.590972 0.123374 6.347287 94 89 69
-0.268570 -1.301386 3.967282 7 6 46
-0.368163 -1.333866 3.932820 180 192 234
-0.368163 -1.333866 3.932820 180 192 234
-0.375670 -1.382187 3.930223 0 3 65
-0.375670 -1.382187 3.930223 0 3 65
-0.375554 -1.397160 3.929011 0 13 74
-0.380329 -1.300662 3.948640 185 199 228
-0.384230 -1.306774 3.946389 0 3 43
-0.384230 -1.306774 3.946389 0 3 43
-0.388136 -1.374556 3.939652 0 7 64
-0.118176 -0.377721 15.562273 172 167 148
-0.394334 -1.368749 3.942249 116 153 208
-0.394153 -1.380515 3.940995 119 154 212
-0.400588 -1.375457 3.943600 0 7 66
-0.400588 -1.375457 3.943600 0 7 66
-0.403386 -1.321752 3.955574 199 205 219
-0.657298 -0.045218 6.400649 190 180 155
-0.420535 -1.312067 3.963559 0 2 40
-0.420535 -1.312067 3.963559 0 2 40
-0.420437 -1.332538 3.960042 0 0 31
-0.420437 -1.332538 3.960042 0 0 31
-0.680698 -0.449185 6.393861 52 49 32
-0.680698 -0.449185 6.393861 52 49 32
-0.687019 -0.102643 6.423287 213 212 194
-0.684442 -0.234142 6.391286 218 215 196
-0.423835 -1.470566 3.955257 0 7 80
-0.688324 -0.280078 6.392445 66 61 42
-0.688324 -0.280078 6.392445 66 61 42
-0.692437 -0.038495 6.395127 218 214 202
-0.235499 -0.407432 2.274204 37 37 35
-0.628621 0.112338 6.339252 217 214 199
-0.702552 -0.120679 6.393152 81 74 56
-0.702552 -0.120679 6.393152 81 74 56
-0.702980 -0.228058 6.396310 221 218 201
-0.703855 -0.252645 6.399931 223 220 203
-0.706661 -0.070742 6.396622 227 224 207
-0.436556 -1.398080 3.961276 0 0 56
-0.436556 -1.398080 3.961276 0 0 56
-0.439542 -1.295345 3.978886 181 194 236
-0.439542 -1.295345 3.978886 181 194 236
-0.438250 -1.378457 3.963854 0 0 60
-0.438250 -1.378457 3.963854 0 0 60
-0.713156 0.141097 6.410717 215 211 199
-0.439595 -1.344677 3.968507 187 192 232
-0.439595 -1.344677 3.968507 187 192 232
-0.708248 -0.676342 6.259527 73 72 67
-0.719367 -0.130063 6.405271 70 68 47
-0.729157 -0.122844 6.407164 210 209 188
-0.730843 -0.055403 6.410552 66 64 43
-0.730843 -0.055403 6.410552 66 64 43
-0.459687 -1.391897 3.973662 124 155 210
-0.459687 -1.391897 3.973662 124 155 210
-0.460286 -1.346998 3.978105 180 189 220
-0.664729 -1.467540 4.086704 7 3 62
-0.468126 -1.348074 3.982202 184 195 217
-0.467983 -1.392611 3.975486 107 147 199
-0.467983 -1.392611 3.975486 107 147 199
-0.474773 -1.338137 3.988461 185 189 198
-0.475792 -1.311863 3.997923 183 194 226
-0.475792 -1.311863 3.997923 183 194 226
-0.794617 -0.558797 6.490506 67 67 59
-0.489646 -1.404092 3.987464 0 1 54
-0.500022 -1.307813 4.009373 6 9 54
-0.500022 -1.307813 4.009373 6 9 54
-0.506230 -1.316549 4.010297 194 198 207
-0.513205 -1.310065 4.018032 0 3 48
-0.513205 -1.310065 4.018032 0 3 48
-0.539218 0.642272 4.326037 222 207 20
-0.515837 -1.407140 4.002117 0 2 58
-0.553339 0.213829 4.333843 47 48 43
-0.854712 -0.248581 6.549083 64 64 56
-0.525441 -1.382711 4.008044 129 162 215
-0.847088 -1.202746 6.431208 29 30 25
-0.852743 -1.164736 6.380287 33 34 29
-0.724359 -0.145452 5.381798 27 27 25
-0.859547 -1.126936 6.166848 41 42 36
-0.880957 -0.876863 6.417268 24 25 20
-0.891849 -0.870573 6.433596 80 81 76
-0.891849 -0.870573 6.433596 80 81 76
-0.909688 -0.831074 6.416313 15 14 10
-0.905608 -0.918674 6.393462 112 113 105
-0.905608 -0.918674 6.393462 112 113 105
-0.915399 -0.656432 6.438423 110 109 104
-0.911587 -0.950695 6.388492 116 117 111
-0.960913 -0.977223 6.628676 29 30 24
-0.977856 -0.763005 6.324128 109 110 104
-0.977856 -0.763005 6.324128 109 110 104
-0.422480 -0.689611 2.959816 109 108 103
-0.974792 -0.956707 6.285515 109 110 104
-0.981017 -0.993098 6.285210 110 111 105
-0.981017 -0.993098 6.285210 110 111 105
-1.004318 0.028633 6.419836 56 57 51
-0.673761 0.848656 4.275972 255 246 34
-1.008938 -0.375581 6.350653 135 135 125
-1.008938 -0.375581 6.350653 135 135 125
-1.019174 0.005780 6.399602 40 41 35
-1.019168 -0.354435 6.325933 145 145 135
-0.281731 -0.438381 1.345452 203 207 206
-0.930782 0.648869 4.345072 194 184 61
-0.968418 0.983212 4.443482 232 218 59
-0.948231 0.661486 4.342161 250 252 203
-0.987844 0.998242 4.454525 240 243 236
-0.992763 0.594332 4.491876 210 219 216
-1.020707 0.592028 4.516497 226 229 220
-1.020707 0.592028 4.516497 226 229 220
-1.124907 0.963427 4.850293 85 162 106
-1.111744 0.361629 3.120808 157 190 21
-0.845820 -1.337242 4.307758 27 48 127
-1.132505 0.639555 4.479794 227 222 58
-1.132505 0.639555 4.479794 227 222 58
-1.156080 0.688012 4.445241 241 235 53
-1.156080 0.688012 4.445241 241 235 53
-1.166953 0.743583 4.423409 224 226 93
-1.171554 0.760678 4.427748 243 239 54
-1.179076 0.805708 4.427078 244 239 75
-1.179076 0.805708 4.427078 244 239 75
-1.208971 0.639799 4.515765 234 224 48
-1.189042 0.849526 4.443999 91 76 0
-1.197819 -1.308288 4.475845 19 37 99
-1.217086 -1.312088 4.492205 18 39 94
-1.244784 0.773647 4.471422 82 177 119
-1.244784 0.773647 4.471422 82 177 119
-1.408398 -1.577855 5.036596 33 50 130
-1.252644 0.794696 4.476363 238 236 91
-1.345171 0.671789 4.578656 28 64 28
-1.345171 0.671789 4.578656 28 64 28
-1.342363 0.686838 4.562782 22 53 22
-1.348056 0.708738 4.553087 21 39 25
-1.363699 0.664631 4.588124 6 53 19
-1.361342 0.862374 4.574682 241 249 238
-1.358882 0.849509 4.566301 36 58 35
-1.368900 0.840104 4.571792 239 242 233
-1.377825 0.754590 4.575351 50 51 46
-1.382001 0.684050 4.587992 40 40 38
-1.382001 0.684050 4.587992 40 40 38
-1.382497 0.860637 4.590166 240 240 238
-1.382770 0.717749 4.575504 243 247 246
-1.383650 0.731599 4.575793 31 37 27
-1.386385 0.705080 4.577170 44 40 39
-1.386385 0.705080 4.577170 44 40 39
-1.383591 0.797694 4.564878 62 64 63
-1.397446 0.813699 4.581290 47 49 48
-1.405280 0.771643 4.579725 55 55 55
-1.405280 0.771643 4.579725 55 55 55
-1.404123 0.730670 4.579756 32 50 38
-1.440679 0.614102 4.684666 0 12 0
-1.435318 0.639866 4.653153 0 9 0
-0.428586 -0.386464 1.369394 0 0 19
-1.477131 0.637169 4.684482 0 2 0
-1.463357 0.717080 4.627275 5 60 18
-1.467317 0.750904 4.622078 5 61 12
-1.468313 0.734297 4.626558 12 60 22
-1.475838 0.834708 4.639168 35 80 39
-1.474722 0.716473 4.634485 22 57 24
-1.502391 0.625596 4.708653 0 25 0
-1.531136 0.615606 4.736040 140 225 158
-1.690554 -0.464337 5.235320 49 50 45
-1.532347 0.622397 4.725735 0 18 0
-1.617959 -1.461256 4.875088 123 130 136
-1.544052 0.805823 4.678294 110 219 154
-1.547328 0.719513 4.683808 47 193 110
-1.544315 0.754294 4.671710 56 181 105
-1.550151 0.745809 4.677354 20 68 20
-1.551251 0.737303 4.681281 52 185 102
-1.551251 0.737303 4.681281 52 185 102
-1.555527 0.693146 4.692910 0 47 0
-1.563224 0.701243 4.694892 164 249 190
-1.628609 -1.451876 4.831842 102 104 103
-0.750199 -0.719640 2.030383 211 210 208
-0.514754 0.902709 3.875695 50 49 44
-1.729519 -1.386971 5.001453 195 189 173
-1.644087 0.738396 4.740520 0 16 0
-1.644087 0.738396 4.740520 0 16 0
-1.653218 0.782352 4.753335 0 22 0
-1.735650 -1.388760 4.991478 207 202 183
-1.661986 0.780497 4.755611 0 4 0
-1.745041 -1.415417 4.984651 191 186 167
-1.667090 0.730908 4.761183 26 144 60
-1.695451 0.684193 4.789252 0 11 0
-1.765122 -1.392273 4.939055 215 213 198
-1.720441 0.660065 4.811579 4 4 6
-1.720441 0.660065 4.811579 4 4 6
-1.765236 -1.436660 4.936715 213 206 190
-1.714070 0.767125 4.785908 0 27 0
-1.714070 0.767125 4.785908 0 27 0
-1.717794 0.728410 4.791243 27 154 77
-1.717794 0.728410 4.791243 27 154 77
-1.732122 0.780298 4.802727 0 24 0
-1.770332 -1.472225 4.896011 100 97 82
-1.770332 -1.472225 4.896011 100 97 82
-1.776398 -1.445412 4.908781 136 133 116
-1.776398 -1.445412 4.908781 136 133 116
-1.745341 0.787861 4.813882 115 225 152
-1.851084 0.345389 5.099547 35 34 30
-1.792650 0.791273 4.845511 0 132 22
-1.568060 -2.731983 9.531819 217 213 201
-1.800520 0.783591 4.845113 213 228 77
-1.857246 -1.732995 4.721538 48 43 39
-1.951688 0.564374 4.957003 39 36 21
-1.874072 -1.306116 4.742242 47 46 42
-1.983436 0.723898 4.971450 45 32 0
-1.894017 -1.231609 4.727265 45 42 37
-1.914014 -1.112512 4.725065 87 84 79
-1.897319 -1.841381 4.672940 175 157 133
-1.931741 -0.822940 4.737387 39 38 34
-1.948457 -0.682413 4.721511 68 64 61
-1.965834 -0.463771 4.740340 43 40 35
-1.926799 -1.810198 4.635453 32 27 21
-1.968571 -0.816593 4.717990 35 34 29
-1.989235 -0.560510 4.740796 64 61 56
-2.007844 -0.189358 4.730122 84 81 76
-2.011284 -0.253351 4.728948 35 32 27
-2.022737 0.047976 4.744020 78 75 70
-2.014555 -0.263369 4.718730 133 130 121
-2.015500 -0.352541 4.707548 46 45 40
-1.996831 -0.963340 4.636015 58 54 45
-2.005869 -0.828908 4.634319 47 44 39
-2.046363 -0.004002 4.724902 106 103 96
-2.046363 -0.004002 4.724902 106 103 96
-2.048991 0.110494 4.727085 41 38 31
-2.062423 0.388140 4.744944 81 78 71
-2.047600 0.176400 4.703833 42 42 34
-2.026723 -0.521963 4.655208 47 46 42
-2.063557 0.124673 4.734840 121 121 113
-2.060597 0.052037 4.722914 30 29 24
-2.020924 -0.670493 4.628145 48 47 43
-2.070991 0.104132 4.735904 39 39 31
-2.074011 0.405358 4.739821 87 84 77
-2.067002 0.116812 4.725726 34 33 28
-2.033657 -0.639902 4.635688 184 171 155
-2.033657 -0.639902 4.635688 184 171 155
-2.041376 -0.487374 4.645955 52 49 44
-2.085132 0.535171 4.737304 92 89 82
-2.042701 -0.426181 4.637462 43 40 35
-2.051819 -0.423942 4.657432 47 44 39
-2.119666 1.028705 4.785489 36 27 18
-2.060558 -0.144576 4.644795 41 40 36
-2.062542 -0.372115 4.645070 180 175 155
-2.074339 -0.203810 4.659264 40 39 34
-2.081986 -0.092486 4.650791 60 57 52
-2.100003 0.006739 4.669179 46 45 40
-2.135457 0.979343 4.744560 54 49 43
-2.093119 -0.062694 4.648160 209 202 183
-2.093119 -0.062694 4.648160 209 202 183
-0.194031 0.491259 2.465237 53 52 47
-2.160196 1.023367 4.744817 47 39 26
-2.120519 0.082825 4.651749 68 64 61
-1.988239 0.120442 4.342988 66 65 61
-2.147148 0.548617 4.661298 45 44 39
-2.164379 0.718089 4.665620 56 53 48
-2.178516 0.526352 4.673705 82 81 77
-2.195737 1.016644 4.685996 92 74 50
-2.737816 0.883404 5.837698 76 73 68
-2.217023 1.022489 4.669356 241 234 228
-2.214393 0.979272 4.661654 71 59 47
2.132502 -1.977081 5.664205 76 77 71
0.226145 -1.094563 2.148285 60 57 52
0.226145 -1.094563 2.148285 60 57 52
2.078456 -1.487323 5.657502 89 89 79
0.517961 -0.292570 1.300473 83 83 75
0.389685 -0.313329 1.064051 35 33 34
1.913609 -0.648382 5.517018 31 32 26
1.896989 -0.546196 5.503576 35 34 29
1.726093 2.175505 5.709728 248 247 242
1.625205 0.882817 5.606147 248 250 239
1.625205 0.882817 5.606147 248 250 239
1.602788 0.278821 5.627361 30 30 28
1.320222 2.128163 5.739519 28 27 23
1.172170 -0.443743 5.318047 128 132 141
1.245323 -0.585034 5.720475 112 116 128
1.202808 -0.581806 5.664829 255 255 248
1.193033 2.113418 5.782182 6 7 1
1.152775 -0.460118 5.643788 36 36 28
0.942475 -0.378525 4.633566 36 36 28
1.151001 -0.430303 5.653145 19 16 7
1.151001 -0.430303 5.653145 19 16 7
1.146827 -0.394705 5.644282 15 15 7
1.136720 -0.418810 5.654700 187 183 172
1.133799 -0.283169 5.651370 28 26 14
1.128898 -0.369955 5.655307 192 188 176
1.128150 -0.318491 5.654543 194 191 184
1.128150 -0.318491 5.654543 194 191 184
1.130974 -0.463244 5.659776 19 18 14
1.129015 -0.369753 5.657993 197 193 181
1.126113 -0.383208 5.654990 4 5 0
1.129121 -0.407079 5.656016 11 10 5
1.136882 0.252916 5.779819 199 199 189
1.106790 -0.253983 5.661615 26 23 18
1.107473 0.412151 5.690460 252 255 242
1.033189 0.409629 5.707700 221 218 199
1.033189 0.409629 5.707700 221 218 199
1.013359 -0.296446 5.701574 192 188 176
1.013359 -0.296446 5.701574 192 188 176
0.725552 0.250406 5.629396 255 255 250
0.929116 0.395744 5.746252 162 160 139
0.577479 -0.642511 5.440934 162 159 144
0.897763 0.278063 5.746166 125 119 103
0.478743 -1.509179 3.494339 158 163 166
0.455171 -1.271629 3.359337 153 150 145
0.075742 -1.048648 2.948185 162 161 157
0.075718 -1.049441 2.980248 155 154 150
-0.112756 -1.262115 2.669154 47 43 68
-0.112756 -1.262115 2.669154 47 43 68
-0.099144 -2.603373 22.554659 169 165 153
0.501847 -0.403354 5.427376 168 165 150
0.495271 -0.385700 5.923236 187 130 121
0.495417 -0.419239 5.924389 171 110 107
0.495417 -0.419239 5.924389 171 110 107
0.491011 -0.369855 5.931627 164 116 104
0.491011 -0.369855 5.931627 164 116 104
0.487212 -0.347548 5.924325 179 112 104
0.487212 -0.347548 5.924325 179 112 104
0.443123 0.069321 5.933643 204 197 178
0.268530 -1.621067 3.695497 224 221 214
0.410204 -0.159924 5.933247 143 153 165
0.253545 -1.165417 3.752914 148 175 182
0.398210 -0.085802 5.931314 83 91 102
0.250014 -1.184830 3.754959 132 174 188
0.248566 -1.660154 3.731406 187 183 174
0.248331 -1.363639 3.738901 173 174 166
0.246852 -1.130377 3.763070 5 24 92
0.239750 -1.194201 3.762084 0 31 96
-0.159501 -0.522657 1.183131 2 5 72
0.343860 -0.258478 5.960544 137 149 163
0.343860 -0.258478 5.960544 137 149 163
0.215282 -1.575403 3.750673 190 192 187
0.340273 -0.607839 5.997880 156 123 82
0.337905 -0.553721 5.995217 147 117 79
0.210577 -1.168950 3.777233 140 168 179
0.128993 -0.535643 2.086786 171 173 162
0.207954 -1.188964 3.776042 121 168 186
0.327996 -0.075349 5.962644 137 147 159
0.324346 -0.603263 6.012386 187 167 143
0.322263 -0.414027 5.997983 146 103 58
0.145337 -1.030257 2.548408 0 4 78
0.291176 -0.580060 5.994061 37 37 27
0.286907 -0.541141 5.991023 37 37 27
0.288578 -0.561572 5.995116 36 36 24
0.171238 -1.166315 3.785345 8 49 128
0.268014 -0.415733 5.985626 121 121 113
0.268014 -0.415733 5.985626 121 121 113
0.163741 -1.214960 3.785371 10 44 108
0.257563 0.084342 5.991227 190 184 168
0.156672 -1.285120 3.783317 0 11 76
0.156090 -1.304280 3.791410 9 36 115
0.155192 -1.199669 3.786135 8 61 163
0.243058 -0.431132 6.001652 119 116 109
0.236859 -0.073967 6.005382 184 182 169
0.235420 -0.447981 6.004671 33 33 23
0.233929 -0.591901 6.044027 164 162 147
0.223246 0.075912 6.014262 52 49 40
0.215498 0.179561 6.003480 45 45 35
0.128903 -1.242016 3.788603 0 1 116
0.187094 0.226229 6.014184 251 254 243
0.183945 0.041664 6.015657 41 43 32
0.095698 -1.144221 3.778211 211 225 226
0.178424 -0.506419 6.062970 24 20 8
0.110289 -1.120885 3.790561 219 230 234
0.111091 -1.132991 3.789728 215 229 230
0.166628 -0.239609 6.047348 178 181 172
0.165491 -0.574398 6.042936 226 229 218
0.164196 -0.221749 6.057221 185 185 173
0.163436 -0.553749 6.041270 232 235 226
0.106084 -1.172538 3.792648 0 37 132
0.152839 0.213438 6.063677 190 188 175
-0.024815 -0.596779 1.930816 210 230 239
0.093421 -1.132565 3.792704 214 231 238
0.139226 0.214102 6.071352 96 129 112
0.087172 -1.140621 3.792140 112 153 185
0.086207 -1.126193 3.793995 108 169 200
0.086207 -1.126193 3.793995 108 169 200
0.127951 0.188601 6.082940 187 189 175
0.079122 -1.133960 3.793213 215 228 236
0.079672 -1.147256 3.793401 217 232 239
0.124026 0.211577 6.073693 199 201 188
0.116471 0.090934 6.076275 6 7 2
0.107797 -0.548346 6.092223 173 165 152
0.102861 0.239595 6.080478 7 5 0
0.096356 0.163986 6.067235 38 38 28
0.087639 -0.464322 5.273949 153 104 97
0.091696 -0.401776 6.100060 171 163 150
0.084919 -0.573244 6.100132 183 183 175
0.082019 -0.387900 6.097402 174 132 120
0.082019 -0.387900 6.097402 174 132 120
0.081476 -0.548951 6.099659 178 164 153
0.079035 -0.290006 6.099137 177 169 156
0.077744 -0.528881 6.100594 171 172 156
0.074980 -0.251560 6.094604 180 174 160
-0.099015 0.064128 11.142377 233 233 223
0.066612 -0.422406 6.095577 179 177 164
0.064042 -0.399917 6.101665 197 189 178
0.060372 -0.380496 6.104231 197 195 180
0.050400 0.013827 6.111844 189 183 167
0.048809 -0.250478 6.104263 195 185 173
0.047094 -0.538529 6.099003 32 30 18
0.029940 -1.277825 3.793776 224 234 243
0.062751 0.085713 11.483418 178 172 158
0.044062 -0.230401 6.105787 197 191 179
0.040426 -0.369969 6.119517 33 29 18
-0.020803 -0.487763 1.137922 148 149 151
0.036965 0.160935 6.122089 187 185 170
0.023643 -1.131987 3.801250 94 157 190
0.032348 0.197605 6.113870 185 183 168
0.031060 -0.078085 6.110048 196 193 176
0.020289 -1.278124 3.790996 222 233 239
0.027493 -0.403135 6.097090 49 49 37
0.020842 -0.293570 6.087217 32 32 22
0.018397 -0.460024 6.099091 178 178 166
0.018397 -0.460024 6.099091 178 178 166
0.011113 -1.285521 3.792263 2 4 87
0.011113 -1.285521 3.792263 2 4 87
0.009836 -1.269715 3.794803 7 16 111
0.009836 -1.269715 3.794803 7 16 111
0.012962 -0.058998 5.296663 11 7 0
0.010537 -0.395710 6.100903 235 241 229
0.010537 -0.395710 6.100903 235 241 229
0.004304 -0.142908 6.098952 30 30 20
0.003889 0.220705 6.141645 192 195 178
0.002489 -0.117975 6.093145 45 47 36
-0.003949 -0.608297 6.135897 164 158 146
-0.015774 0.034960 6.109854 41 42 28
-0.010050 -1.179448 3.812053 0 57 146
-0.027251 -0.401867 6.148142 168 164 152
-0.021279 -1.131228 3.825348 198 218 227
-0.020537 -1.279943 3.799409 5 6 96
-0.020537 -1.279943 3.799409 5 6 96
-0.019495 -1.296326 3.798977 6 20 108
-0.019495 -1.296326 3.798977 6 20 108
-0.039836 -0.551538 6.154147 185 177 164
-0.030770 -1.277772 3.803190 214 226 248
-0.049447 -0.162674 6.136613 182 176 162
-0.055517 -0.408061 6.157132 187 183 172
-0.037008 -1.138187 3.830841 207 224 234
-0.037008 -1.138187 3.830841 207 224 234
-0.038074 -1.300074 3.803161 6 16 105
-0.038074 -1.300074 3.803161 6 16 105
-0.039113 -1.284837 3.804085 4 5 85
-0.066509 -0.006315 6.152105 193 185 164
-0.075490 -0.041144 6.155188 158 143 112
-0.075490 -0.041144 6.155188 158 143 112
-0.079530 0.140248 6.164884 183 177 161
-0.078568 -0.382298 6.164474 8 6 0
-0.048040 -1.279138 3.806415 218 229 233
-0.050760 -1.137901 3.828600 203 218 225
-0.087577 -0.102659 6.157664 197 185 169
-0.086461 -0.438984 6.142693 38 38 28
0.186869 -0.725771 1.709759 218 215 210
-0.088934 -0.423293 6.142100 34 36 25
-0.056689 -1.295975 3.808151 0 0 79
-0.060225 -1.141004 3.839141 93 151 189
-0.060225 -1.141004 3.839141 93 151 189
-0.097436 -0.571049 6.151881 197 196 191
-0.102321 -0.302962 6.146614 41 43 32
-0.106154 0.139938 6.164988 203 198 179
-0.063827 -1.287869 3.808794 210 220 229
-0.000030 -0.124535 11.674546 25 21 9
-0.073617 -1.290155 3.814407 10 11 91
-0.251383 0.121439 11.598252 24 20 8
-0.120910 -0.124232 6.159360 36 36 26
-0.121469 -0.297018 6.148627 224 226 212
-0.121469 -0.297018 6.148627 224 226 212
-0.077745 -1.153235 3.841628 95 151 184
-0.077745 -1.153235 3.841628 95 151 184
-0.135167 0.217113 6.183079 9 9 0
-0.134699 0.020809 6.164762 40 40 30
-0.139403 -0.024470 6.158486 222 225 216
-0.095142 -1.258737 3.823204 199 212 218
-0.156679 -0.017878 6.159191 223 224 216
-0.114046 -1.189865 3.848065 3 40 118
-0.186845 -0.203965 6.206470 158 141 115
-0.186845 -0.203965 6.206470 158 141 115
-0.116691 -1.157693 3.858204 90 146 179
-0.116691 -1.157693 3.858204 90 146 179
-0.113747 -1.252541 3.834593 19 34 117
-0.193773 -0.633610 6.208614 222 218 206
-0.121504 -1.361724 3.820923 0 5 86
-0.210986 -0.573906 6.203782 67 62 43
-0.216131 -0.007690 6.213123 210 197 180
-0.237351 -1.372627 4.075223 5 8 77
-0.241624 -0.177515 6.212610 223 217 203
-0.252402 0.000805 6.212922 220 127 21
-0.257787 -0.229992 6.210837 249 246 227
-0.269209 -0.218644 6.215415 50 45 23
-0.168146 -1.276150 3.847955 196 210 236
-0.168146 -1.276150 3.847955 196 210 236
-0.279829 -0.082213 6.221257 225 137 74
-0.180762 -1.438739 3.837395 1 6 74
-0.310685 -0.111087 6.230944 197 129 66
-0.194417 -1.313190 3.854119 208 218 227
-0.414079 0.094484 7.766084 214 123 40
-0.329922 -0.012296 6.269524 186 133 79
-0.341680 -0.650076 6.255066 217 213 201
-0.211209 -1.359074 3.853257 15 21 95
-0.358657 -0.594245 6.263256 57 50 31
-0.358657 -0.594245 6.263256 57 50 31
-0.446793 -0.579539 7.676804 220 214 202
-0.224785 -1.314943 3.866524 13 16 61
-0.377221 -0.293461 6.259410 222 218 206
-0.235522 -1.272722 3.881574 191 200 229
-0.235522 -1.272722 3.881574 191 200 229
-0.233626 -1.319569 3.871111 198 205 223
-0.233626 -1.319569 3.871111 198 205 223
-0.237052 -1.375478 3.864917 0 2 61
-0.388621 -0.592298 6.277236 37 37 25
-0.395553 -0.605400 6.272306 230 227 212
-0.248274 -1.298453 3.880871 205 210 216
-0.248415 -1.308032 3.879304 205 209 220
-0.567935 0.151710 6.369582 222 216 204
-0.262627 -1.275438 3.892190 199 206 216
-0.427505 -0.063290 6.278781 34 36 15
-0.427505 -0.063290 6.278781 34 36 15
-0.270960 -1.165490 3.944796 89 143 187
-0.270960 -1.165490 3.944796 89 143 187
-0.271151 -1.292006 3.892024 1 3 42
-0.271111 -1.308991 3.889165 1 3 42
-0.271111 -1.308991 3.889165 1 3 42
-0.282041 -1.183284 3.939394 0 38 117
-0.480238 0.246835 6.366905 72 74 86
-0.295898 -1.290835 3.904702 191 203 215
-0.295898 -1.290835 3.904702 191 203 215
-0.486823 -0.666385 6.314617 213 209 197
-0.304491 -1.298679 3.912439 0 1 47
-0.304491 -1.298679 3.912439 0 1 47
-0.451054 -0.573052 7.807239 217 213 201
-0.504805 -0.614536 6.325634 59 58 40
-0.312017 -1.374028 3.904504 3 3 65
-0.639148 -0.482464 7.827419 218 214 202
-0.321275 -1.455870 3.900297 16 22 96
-0.536587 -0.098168 6.315441 221 215 203
-0.570535 0.037830 2.487833 62 66 75
-0.624859 0.071841 6.346820 219 216 201
-0.556373 -0.445212 6.338187 48 47 27
-0.556373 -0.445212 6.338187 48 47 27
-0.350235 -1.376711 3.920124 2 8 70
-0.350235 -1.376711 3.920124 2 8 70
-0.597553 0.745666 6.559409 185 191 181
-0.602201 -0.508347 6.388778 135 114 85
-0.371723 -1.390348 3.925832 1 10 69
-0.371723 -1.390348 3.925832 1 10 69
-0.382868 -1.306042 3.937757 3 6 47
-0.382868 -1.306042 3.937757 3 6 47
-0.490582 -0.661440 6.378190 212 208 196
-0.637170 -0.581774 6.362864 217 213 201
-0.649226 -0.464705 6.391198 215 211 199
-0.646712 -0.499481 6.373965 213 209 197
-0.665695 -0.321925 6.392301 217 214 199
-0.210475 -1.339398 4.013561 191 199 222
-0.222365 -1.353953 4.179539 186 194 217
-0.687301 -0.218951 6.388589 94 87 68
-0.698877 -0.311418 6.396179 55 50 30
-0.698877 -0.311418 6.396179 55 50 30
-0.698877 -0.311418 6.396179 55 50 30
-0.700812 -0.292355 6.397987 220 219 201
-0.705786 -0.956899 6.319909 36 37 32
-0.464366 -1.322533 3.984922 199 205 217
-0.464366 -1.322533 3.984922 199 205 217
-0.464610 -1.383681 3.976613 0 0 49
-0.747410 -1.495738 5.993839 36 35 31
0.228571 -0.419277 1.417395 78 79 74
-0.500957 -1.307957 4.010128 9 9 59
-0.534130 0.844274 4.237553 249 234 21
-0.507140 -1.325215 4.010597 198 200 212
-0.506775 -1.333382 4.007460 12 12 46
-0.506775 -1.333382 4.007460 12 12 46
-0.512383 -1.309976 4.017558 0 3 48
-0.508872 -1.389095 3.999412 0 2 59
-0.508872 -1.389095 3.999412 0 2 59
-0.546201 0.649054 4.346343 221 206 19
-0.868761 0.427227 6.639833 39 40 35
-0.851324 -0.448503 6.455348 30 30 28
-0.910149 0.863716 6.662506 52 51 46
-0.899267 -0.896288 6.403871 93 94 88
-0.899267 -0.896288 6.403871 93 94 88
-0.900335 -1.021663 6.391257 28 29 24
-0.902725 -1.081334 6.358701 123 123 115
-0.987990 0.527767 6.483352 54 53 49
-0.985050 -0.942543 6.268871 28 29 24
-1.008478 -0.375837 6.347858 135 135 125
-1.087254 -0.764594 3.778102 123 124 116
-0.905967 -1.530707 4.328236 32 37 105
0.118836 -0.372851 0.873361 26 34 109
-1.032299 0.988316 4.543405 131 181 143
-0.989133 0.850347 4.308881 248 255 224
-1.127412 0.966603 4.858678 56 165 98
-1.071267 0.697204 4.385208 44 184 111
-1.063864 0.811303 4.349766 29 68 41
-1.260468 -1.587149 4.526775 224 228 227
-1.260468 -1.587149 4.526775 224 228 227
-1.097798 -1.548296 4.339694 54 56 131
-0.014349 -0.592786 1.986773 25 25 23
-0.921218 -1.398444 4.360214 36 42 92
-0.921218 -1.398444 4.360214 36 42 92
-1.150649 0.673360 4.452134 251 244 40
-1.150649 0.673360 4.452134 251 244 40
-1.157293 0.689323 4.448950 246 236 53
-1.157293 0.689323 4.448950 246 236 53
-1.174084 -1.532603 4.586198 211 220 227
-1.174084 -1.532603 4.586198 211 220 227
-1.167353 0.723625 4.432208 251 245 49
-1.167353 0.723625 4.432208 251 245 49
-1.176251 0.671726 4.468965 61 174 108
